0.002824 0.259490 0.364442 1.000000 0.000000 0.000000 
-0.078828 0.296633 -0.234520 -0.852279 -0.034934 -0.521920 
-0.454551 0.013145 -0.030887 -0.096846 -0.217311 -0.971286 
-0.484751 0.119069 0.110265 -0.000824 0.135789 0.990737 
0.370191 0.159690 0.165520 -0.001036 0.327641 0.944802 
0.391064 0.200903 0.161782 -0.001347 0.328496 0.944504 
0.359894 0.405593 -0.076392 0.121554 -0.828323 -0.546906 
-0.462124 0.215698 -0.037230 -0.093211 -0.090346 -0.991539 
0.484751 0.499999 -0.084265 0.000000 1.000000 0.000000 
0.293949 0.339003 -0.471456 -0.380703 -0.043181 -0.923688 
-0.178032 -0.405753 0.278403 0.000107 -0.995945 0.089966 
-0.074573 0.074342 -0.048342 -0.000307 -0.780260 -0.625455 
-0.334971 -0.495237 0.019027 -0.000026 -0.995970 0.089685 
0.419642 0.351520 -0.300950 0.110491 -0.989911 0.088703 
0.297893 0.017645 0.056642 0.465126 -0.881644 0.079755 
0.372908 0.499999 -0.052988 0.000000 1.000000 0.000000 
0.484751 0.453612 0.308277 0.009275 0.016760 0.999817 
0.064802 -0.076476 -0.024724 0.000487 -0.197112 -0.980381 
-0.093092 -0.334058 0.486174 0.000076 -0.995960 0.089801 
-0.131869 -0.079911 -0.024563 0.000050 -0.200542 -0.979685 
0.059852 -0.371081 0.378900 0.699311 -0.407829 0.587061 
0.285602 0.445063 0.315803 0.103392 0.021946 0.994399 
0.170235 0.114949 0.242617 0.629883 -0.773653 0.068627 
0.010934 0.203744 -0.158834 0.000506 -0.995886 -0.090610 
-0.225675 0.499999 -0.111960 -0.465018 0.706137 -0.533975 
-0.248176 -0.340171 -0.007983 -0.002008 -0.276460 -0.961023 
0.142933 0.291059 -0.411707 -0.415063 -0.695480 -0.586541 
0.078296 0.143052 -0.080353 0.001384 -0.928137 -0.372236 
0.002824 -0.245373 0.426678 1.000000 0.000000 0.000000 
-0.170936 -0.381801 -0.004834 0.000097 -0.291569 -0.956550 
0.002824 -0.362563 0.403565 0.707138 -0.704225 0.063424 
-0.500001 -0.464674 0.026709 -1.000000 0.000000 0.000000 
0.381547 0.499999 0.175464 0.000000 1.000000 0.000000 
0.268335 0.499999 0.249214 0.000000 1.000000 0.000000 
0.026992 0.499999 -0.196201 0.000000 1.000000 0.000000 
-0.264464 -0.294193 -0.011355 0.000264 -0.261375 -0.965237 
-0.500001 -0.032958 -0.026900 -0.712341 -0.130261 -0.689640 
-0.150071 -0.489362 0.036056 -0.000000 -0.995970 0.089687 
0.144461 -0.029680 -0.013509 0.702053 -0.709319 0.063153 
-0.362005 0.499999 0.067415 0.000000 1.000000 0.000000 
0.362010 0.292460 -0.415513 0.069085 -0.997105 -0.031748 
-0.396060 -0.446298 0.000494 -0.000185 -0.308082 -0.951360 
-0.058177 -0.406649 0.275847 0.000039 -0.995983 0.089548 
-0.500001 -0.294997 0.030144 -1.000000 0.000000 0.000000 
0.254668 0.499999 -0.317340 0.000000 1.000000 0.000000 
0.020993 0.499999 0.061087 0.000000 1.000000 0.000000 
-0.222597 -0.117953 -0.022507 0.000227 -0.209094 -0.977896 
0.180412 0.499999 0.324835 0.111313 0.710195 0.695149 
0.500001 0.499999 -0.317570 0.707107 0.707107 0.000000 
0.292013 0.277253 0.202306 0.358706 -0.929734 0.083216 
0.160005 -0.479905 0.063400 0.529424 -0.718517 -0.451048 
0.162889 -0.353357 0.197542 0.984616 -0.173988 0.016093 
0.317292 0.297796 -0.066717 -0.001033 -0.325742 -0.945458 
-0.458681 -0.102042 0.120481 -0.001960 0.211822 0.977306 
0.123450 0.079828 -0.047087 -0.006657 -0.443287 -0.896355 
0.215070 0.499999 0.144595 0.000000 1.000000 0.000000 
0.226084 0.240816 -0.265974 0.138099 -0.989968 -0.029885 
-0.088678 -0.373576 0.371635 -0.000242 -0.995965 0.089737 
0.335986 0.370032 -0.482004 -0.305486 -0.035447 -0.951537 
0.281885 0.179728 -0.056042 0.244038 -0.798930 -0.549688 
-0.175182 0.042595 0.473748 -0.154359 0.194016 0.968778 
0.147631 0.499999 0.069718 0.000000 1.000000 0.000000 
-0.023130 0.050851 0.466411 0.610956 0.124354 0.781837 
-0.139809 0.293375 -0.172073 -0.804825 -0.040596 -0.592122 
-0.500001 -0.185185 0.028237 -1.000000 0.000000 0.000000 
-0.224854 -0.040165 0.350240 -1.000000 0.000000 0.000000 
0.328040 0.315382 0.221250 0.291962 -0.952511 0.086494 
0.384046 0.371982 -0.205737 0.160619 -0.983004 0.088911 
-0.236755 0.020481 0.242388 -0.969346 0.042019 0.242079 
0.129760 -0.468900 0.095310 -0.000250 -0.995954 0.089861 
-0.455977 -0.424340 0.143637 -0.000551 0.314974 0.949100 
0.023314 -0.195024 -0.017993 0.001633 -0.231662 -0.972795 
-0.500001 0.389508 -0.024935 -1.000000 0.000000 0.000000 
-0.371419 0.108512 0.119009 -0.387505 0.128337 0.912891 
0.062304 0.338276 0.340891 0.213026 0.064096 0.974942 
0.329154 0.303638 -0.447977 -0.000019 -0.995919 -0.090257 
-0.328215 -0.172788 -0.019342 0.000415 -0.222764 -0.974872 
0.116032 0.499999 0.188604 0.000000 1.000000 0.000000 
-0.126964 -0.300158 -0.011001 -0.000595 -0.264241 -0.964457 
0.128010 0.445063 0.330977 0.183425 0.020653 0.982817 
0.403939 0.349553 0.191102 0.159630 -0.983286 0.087563 
0.464821 0.299565 -0.006865 0.037512 -0.837278 -0.545489 
0.032495 -0.182654 0.367930 0.222513 0.252430 0.941683 
-0.332146 0.315556 0.128841 -0.603225 0.057940 0.795464 
0.150631 0.499999 -0.058926 0.000000 1.000000 0.000000 
0.068562 0.113592 0.346347 0.208805 0.145819 0.967025 
-0.225671 0.420602 0.278874 -0.998338 0.000570 0.057620 
0.006754 0.499999 0.177251 0.000000 1.000000 0.000000 
0.379306 0.499999 -0.222947 0.000000 1.000000 0.000000 
0.032900 0.238097 0.347487 0.226625 0.097727 0.969067 
-0.314726 -0.092955 -0.023875 0.000090 -0.200896 -0.979612 
0.500001 0.444837 -0.229092 1.000000 0.000000 0.000000 
-0.372326 -0.066213 0.126616 -0.381038 0.182477 0.906373 
0.104228 -0.043756 -0.026642 -0.005562 -0.266027 -0.963950 
-0.418025 0.285798 0.106257 -0.104165 0.070021 0.992092 
0.142390 0.499999 -0.200049 0.000000 1.000000 0.000000 
0.386753 0.499999 0.259442 0.000000 1.000000 0.000000 
-0.225931 -0.469969 0.092247 -0.000266 -0.995986 0.089505 
0.311437 0.350280 -0.153164 0.264971 -0.960426 0.085864 
-0.420772 0.472530 0.104062 -0.080261 0.011379 0.996709 
-0.500001 0.061355 0.015846 -1.000000 0.000000 0.000000 
0.443473 0.222950 0.159829 0.000295 0.326014 0.945365 
0.213828 0.499999 -0.296697 0.000000 1.000000 0.000000 
-0.375163 0.315981 0.112545 -0.372109 0.051537 0.926757 
-0.347933 -0.480989 0.060317 -0.000155 -0.995968 0.089711 
-0.065682 0.499999 -0.228867 0.000000 1.000000 0.000000 
-0.068115 -0.201538 -0.017574 -0.001797 -0.236634 -0.971597 
0.179853 0.149520 -0.053311 -0.000269 -0.324721 -0.945810 
0.154872 0.499999 0.253723 0.000000 1.000000 0.000000 
-0.439006 0.039654 0.113384 -0.012994 0.161653 0.986762 
0.237201 0.499999 0.277003 0.000000 1.000000 0.000000 
0.059852 -0.436025 0.190649 0.000238 -0.995968 0.089710 
0.002824 -0.165184 0.414359 1.000000 0.000000 0.000000 
-0.113479 -0.220520 -0.016365 0.000511 -0.234715 -0.972064 
0.447383 0.115822 0.009704 0.071527 -0.835564 -0.544717 
-0.136983 0.120130 -0.067128 0.005564 -0.888224 -0.459376 
-0.002092 0.343438 -0.312962 -0.799847 -0.028988 -0.599503 
0.264097 0.059985 0.014775 0.000181 -0.327702 -0.944781 
-0.360091 -0.111971 -0.022856 0.000625 -0.206292 -0.978490 
0.151630 0.499999 -0.101807 0.000000 1.000000 0.000000 
0.223600 0.238551 -0.061325 0.000824 -0.325576 -0.945515 
-0.163897 0.499999 0.298440 0.000000 1.000000 0.000000 
-0.240604 -0.031176 0.234954 -0.957345 0.056560 0.283358 
0.469158 0.499999 0.276249 0.000000 1.000000 0.000000 
-0.379023 0.086732 -0.045207 -0.288588 -0.200259 -0.936276 
0.273269 0.499999 0.121231 0.000000 1.000000 0.000000 
-0.361723 -0.221488 0.139517 -0.441988 0.224023 0.868597 
-0.018725 0.499999 0.280936 0.000000 1.000000 0.000000 
-0.195430 -0.425905 0.219967 -0.000171 -0.995966 0.089736 
-0.315657 0.273883 0.138873 -0.683808 0.063456 0.726897 
0.198059 0.173291 0.259746 0.561617 -0.824193 0.072752 
-0.011349 0.397134 0.448169 0.833174 0.045768 0.551114 
0.075125 0.222446 0.341704 0.207911 0.099105 0.973114 
-0.012754 0.499999 -0.304431 -0.577670 0.703731 -0.413594 
0.500001 0.330482 -0.000142 1.000000 0.000000 0.000000 
-0.044845 0.101923 -0.058504 -0.004825 -0.857372 -0.514674 
-0.391267 -0.082625 -0.024454 -0.000772 -0.198927 -0.980014 
0.104645 -0.440669 0.177143 0.000030 -0.995973 0.089654 
0.057712 0.499999 -0.030118 0.000000 1.000000 0.000000 
-0.054565 0.499999 0.087173 0.000000 1.000000 0.000000 
0.098558 -0.170016 -0.005377 0.844227 -0.533681 0.049661 
-0.255728 -0.499999 0.005200 0.000007 -0.838775 -0.544479 
0.075948 -0.404507 0.056602 -0.000074 -0.325177 -0.945653 
0.500001 0.427318 -0.033942 1.000000 0.000000 0.000000 
-0.159922 0.235983 0.466670 -0.021828 0.115586 0.993058 
0.235635 0.282337 -0.065320 -0.003133 -0.327367 -0.944892 
-0.118056 -0.085281 0.481326 -0.000232 0.235327 0.971916 
0.274210 -0.024326 0.036625 0.537341 -0.839911 0.076253 
-0.016616 -0.043703 0.467429 0.753680 0.163834 0.636494 
-0.427197 0.270467 -0.041949 -0.195988 -0.073938 -0.977815 
0.151960 0.072526 0.236671 0.682347 -0.727958 0.066930 
0.112681 -0.455099 0.135344 -0.000077 -0.995955 0.089852 
-0.500001 -0.072141 0.074936 -1.000000 0.000000 0.000000 
0.294507 0.499999 -0.295103 0.000000 1.000000 0.000000 
-0.151549 0.499999 0.373770 0.000000 1.000000 0.000000 
-0.122261 0.213511 -0.186784 -0.560443 -0.702255 -0.439022 
0.060975 -0.361866 0.245378 0.995890 -0.090194 0.008202 
-0.052259 -0.131445 0.484358 0.100758 0.262436 0.959675 
-0.245522 0.499999 0.117108 0.000000 1.000000 0.000000 
-0.004607 0.499999 -0.077315 0.000000 1.000000 0.000000 
0.008604 0.220378 -0.206698 0.000757 -0.995988 -0.089482 
-0.204666 0.231754 0.455872 -0.745414 0.041041 0.665337 
-0.115581 -0.126099 -0.022056 0.000541 -0.206068 -0.978538 
0.066711 0.341822 -0.366608 -0.719746 -0.036075 -0.693300 
-0.342404 -0.221074 -0.016382 -0.000640 -0.240180 -0.970728 
-0.058177 -0.434170 0.196020 0.000116 -0.995959 0.089808 
0.194711 0.499999 0.275961 0.000000 1.000000 0.000000 
0.454250 0.499999 -0.378415 0.000000 1.000000 0.000000 
-0.465202 -0.263040 0.130809 0.001537 0.263693 0.964605 
0.192461 -0.174229 0.181350 0.835743 -0.547044 0.047720 
0.069073 0.499999 0.224448 0.000000 1.000000 0.000000 
0.096431 0.499999 -0.207086 0.000000 1.000000 0.000000 
-0.433135 -0.258992 -0.013845 -0.001379 -0.253231 -0.967405 
0.424265 0.499999 -0.173029 0.000000 1.000000 0.000000 
0.136977 -0.147214 0.033435 -0.001879 -0.329064 -0.944306 
0.019804 -0.037590 -0.027183 -0.007613 -0.302603 -0.953086 
0.162724 0.079881 0.186952 0.651352 -0.755716 0.068072 
0.169195 -0.335726 0.064674 0.949297 -0.313021 0.029219 
0.160276 -0.407925 0.204808 0.998583 -0.053027 0.004377 
0.294063 0.027160 0.099110 0.481702 -0.872722 0.079494 
0.268278 -0.014551 0.093386 0.556654 -0.827255 0.076061 
-0.500001 -0.406155 -0.002842 -0.707482 -0.209564 -0.674946 
-0.224854 -0.053462 0.424218 -0.999373 0.010296 0.033886 
-0.073924 0.499999 0.175657 0.000000 1.000000 0.000000 
-0.268661 -0.105459 -0.023191 -0.000022 -0.205215 -0.978717 
-0.018543 -0.370961 -0.005642 0.000959 -0.286621 -0.958043 
-0.193717 0.085044 0.468012 -0.500283 0.154128 0.852034 
-0.500001 0.250133 -0.010087 -1.000000 0.000000 0.000000 
-0.184058 0.499999 0.250513 0.000000 1.000000 0.000000 
0.123861 -0.186493 0.036968 0.003790 -0.327576 -0.944817 
0.182230 0.499999 -0.177811 0.000000 1.000000 0.000000 
0.002824 -0.304177 0.421554 1.000000 0.000000 0.000000 
0.273591 0.282106 -0.265190 0.322516 -0.942693 0.085520 
0.400650 0.417383 0.310037 0.048591 0.033612 0.998253 
-0.084285 0.499999 -0.121790 0.000000 1.000000 0.000000 
0.500001 0.270946 -0.004308 0.706709 -0.230822 -0.668793 
0.500001 0.499999 -0.256842 0.707107 0.707107 0.000000 
-0.302182 -0.483751 0.052336 0.000065 -0.995965 0.089741 
-0.135472 0.070520 -0.047143 0.003427 -0.768023 -0.640413 
0.104263 -0.222915 0.199977 0.001249 0.326715 0.945122 
0.390479 0.257575 -0.063071 0.116031 -0.830134 -0.545358 
0.354832 0.499999 -0.089476 0.000000 1.000000 0.000000 
-0.469520 0.277959 -0.038222 -0.081546 -0.081397 -0.993340 
-0.500001 -0.462443 0.114071 -0.707118 -0.704224 0.063660 
-0.224258 0.343423 0.419326 -0.996305 -0.004973 0.085746 
0.125271 0.499999 0.286837 0.000000 1.000000 0.000000 
0.338023 0.446574 0.312556 0.082364 0.021609 0.996368 
-0.171930 0.187551 0.468156 -0.122933 0.115243 0.985701 
0.278804 0.267272 -0.320629 0.230172 -0.972234 0.042219 
-0.386952 -0.495387 0.018583 -0.000197 -0.995970 0.089688 
-0.143254 -0.254137 -0.014206 0.000044 -0.247395 -0.968915 
0.283824 0.323525 -0.170326 0.303873 -0.948815 0.086093 
0.388996 0.499999 -0.449185 0.000000 1.000000 0.000000 
0.166869 0.499999 -0.260853 0.000000 1.000000 0.000000 
-0.379260 -0.179270 0.131633 -0.344895 0.224557 0.911385 
0.276236 0.297375 -0.066654 0.001984 -0.329863 -0.944027 
0.166995 -0.048265 0.184278 0.002759 0.325027 0.945701 
-0.152233 0.156493 -0.089740 0.003096 -0.944173 -0.329436 
-0.224854 0.038902 0.412567 -0.999992 -0.002006 0.003547 
-0.500001 0.071622 0.112061 -0.707226 0.107676 0.698740 
0.085558 -0.465683 0.104643 0.000030 -0.995959 0.089809 
-0.225681 -0.272785 0.308253 -0.997859 0.023359 0.061091 
-0.194437 -0.391290 0.320262 -0.000013 -0.995965 0.089740 
-0.224854 -0.211778 0.400798 -1.000000 0.000000 0.000000 
-0.012847 0.499999 -0.218438 0.000000 1.000000 0.000000 
0.002824 0.444976 0.397759 1.000000 0.000000 0.000000 
0.204359 -0.128948 0.191499 0.601530 -0.223231 0.767026 
0.002796 0.037423 -0.037917 0.002088 -0.660375 -0.750933 
-0.344815 -0.263206 0.148908 -0.530209 0.227417 0.816799 
0.051033 0.245808 -0.280209 0.000808 -0.995942 -0.089995 
0.163038 -0.018901 0.021867 0.000841 -0.328715 -0.944429 
-0.228170 0.177677 0.265911 -0.991283 0.020344 0.130170 
0.083789 0.279151 -0.377065 -0.467194 -0.700314 -0.539712 
0.377700 0.142239 0.007324 0.002546 -0.324582 -0.945854 
0.124421 -0.082860 -0.010286 0.761616 -0.645326 0.059120 
0.160005 -0.457883 0.127261 0.696578 -0.714588 0.064369 
0.447379 0.169287 0.164644 0.091554 -0.538621 0.837559 
-0.436396 -0.198953 0.126327 -0.022579 0.244227 0.969455 
-0.061839 0.263734 -0.252304 -0.851937 -0.036265 -0.522386 
-0.057052 0.106623 0.471221 0.061569 0.164045 0.984530 
-0.469500 -0.064528 -0.025335 0.000700 -0.207756 -0.978180 
0.299821 0.151207 0.006503 -0.001139 -0.325637 -0.945494 
0.075951 0.499999 -0.317808 0.000000 1.000000 0.000000 
-0.224854 -0.079779 0.369695 -1.000000 0.000000 0.000000 
-0.000594 -0.009057 0.444798 0.965024 0.033573 0.260004 
-0.060351 -0.037914 0.478441 0.032789 0.213646 0.976361 
0.188248 0.293519 -0.418647 0.000927 -0.995957 -0.089828 
0.355947 0.499999 0.037062 0.000000 1.000000 0.000000 
-0.110611 0.346723 0.464179 -0.000497 0.063679 0.997970 
-0.227963 -0.233245 0.288722 -0.991256 0.038507 0.126208 
0.002824 0.331057 0.414650 0.998200 -0.003866 0.059846 
-0.392566 0.325074 -0.048591 -0.284218 -0.053721 -0.957253 
-0.224854 0.351114 0.346445 -1.000000 0.000000 0.000000 
-0.446953 -0.460970 0.118350 -0.000205 -0.995969 0.089702 
-0.466288 0.007876 0.114794 0.000179 0.173906 0.984762 
-0.000279 -0.286201 0.462490 0.970793 0.073980 0.228226 
-0.026979 0.005623 -0.031957 -0.004476 -0.517736 -0.855529 
-0.055425 -0.329289 0.500000 0.053607 -0.555512 0.829779 
0.419771 0.323285 -0.069033 0.000611 -0.324988 -0.945718 
-0.192123 0.391402 -0.132398 -0.718299 -0.027362 -0.695197 
0.500001 0.445061 0.039181 1.000000 0.000000 0.000000 
0.002824 0.309736 0.350623 0.786462 0.046409 0.615892 
-0.049197 0.012929 0.475662 0.129620 0.196311 0.971936 
0.046352 0.499999 -0.284684 0.000000 1.000000 0.000000 
-0.484751 -0.237869 -0.015307 0.001272 -0.243601 -0.969875 
-0.414377 -0.097024 0.120981 -0.119932 0.199477 0.972536 
0.291776 0.050168 0.175394 0.385921 -0.434097 0.814018 
0.356475 0.395667 0.311998 0.070675 0.038265 0.996765 
-0.438459 0.321518 -0.041499 -0.163119 -0.064860 -0.984472 
0.079183 -0.246553 0.042409 0.616037 -0.488673 -0.617817 
-0.500001 0.092946 0.057192 -1.000000 0.000000 0.000000 
-0.500001 0.499999 0.103500 -0.577350 0.577350 0.577350 
0.194505 0.265029 0.326169 0.151526 0.085524 0.984746 
-0.020647 -0.276860 -0.012592 0.000999 -0.257127 -0.966377 
-0.460117 0.390201 -0.040454 -0.108898 -0.037443 -0.993348 
0.165690 0.214334 -0.101489 0.504321 -0.860028 0.077539 
-0.076060 0.149455 0.469496 0.000628 0.142224 0.989834 
-0.226052 0.035939 -0.037848 0.003764 -0.652604 -0.757690 
0.238308 0.499999 -0.357500 0.000000 1.000000 0.000000 
0.311868 0.499999 0.140302 0.000000 1.000000 0.000000 
-0.027676 -0.450696 0.148125 -0.000061 -0.995952 0.089889 
-0.170268 0.190502 -0.127150 -0.000289 -0.988027 -0.154282 
0.331054 0.335406 0.272632 0.283862 -0.954971 0.086335 
0.317969 0.302057 -0.305710 0.254312 -0.963275 0.086181 
0.348707 0.499999 -0.146942 0.000000 1.000000 0.000000 
-0.039743 -0.104896 -0.023193 0.000201 -0.203466 -0.979082 
-0.436632 -0.101632 -0.023393 -0.001041 -0.202976 -0.979183 
-0.298438 -0.139132 -0.021308 0.000098 -0.214718 -0.976676 
0.500001 0.407859 -0.427208 1.000000 0.000000 0.000000 
-0.164929 -0.458946 0.124177 -0.000249 -0.995961 0.089788 
-0.021052 -0.156188 0.477399 0.659089 0.193944 0.726628 
0.257396 0.499999 -0.003537 0.000000 1.000000 0.000000 
0.099437 0.189588 0.339377 0.193137 0.120636 0.973727 
0.384582 0.393189 -0.491030 -0.219356 -0.031269 -0.975144 
-0.309829 -0.313133 -0.010017 0.000291 -0.268458 -0.963291 
0.223028 0.499999 -0.418923 0.000000 1.000000 0.000000 
0.068073 0.499999 0.267329 0.000000 1.000000 0.000000 
-0.285540 0.192302 0.163806 -0.810694 0.064127 0.581947 
-0.336998 0.499999 -0.063850 -0.299409 0.699349 -0.649050 
0.500001 0.499999 -0.166600 0.707107 0.707107 0.000000 
0.444624 0.499999 -0.304394 0.000000 1.000000 0.000000 
0.428506 0.499999 0.139620 0.000000 1.000000 0.000000 
-0.196941 0.422604 0.457171 -0.569375 0.067776 0.819279 
-0.097189 -0.266586 -0.013335 0.000486 -0.253114 -0.967436 
-0.200646 -0.415024 -0.002111 0.000171 -0.303863 -0.952716 
0.002824 0.204938 0.409613 0.999857 0.007079 0.015354 
0.324649 0.499999 0.267859 0.000000 1.000000 0.000000 
-0.252989 -0.074133 0.214572 -0.922742 0.077885 0.377465 
-0.073081 0.017746 -0.033878 -0.000838 -0.585015 -0.811022 
-0.222419 0.083018 0.435781 -0.978822 0.044584 0.199798 
-0.069518 -0.138590 -0.021373 0.000115 -0.208732 -0.977973 
0.215351 -0.019846 0.021942 -0.000369 -0.326348 -0.945250 
0.386944 0.110991 0.076722 0.246765 -0.965058 0.088151 
-0.286411 0.446557 -0.081912 -0.529176 -0.016497 -0.848352 
0.225613 0.259889 -0.321262 -0.000007 -0.995944 -0.089981 
0.085162 -0.161213 0.208693 0.898010 -0.438195 0.039529 
-0.205553 0.499999 -0.074258 0.000000 1.000000 0.000000 
-0.072925 0.499999 0.132776 0.000000 1.000000 0.000000 
-0.298807 0.377900 0.148948 -0.756898 0.032334 0.652733 
-0.126712 0.197858 -0.142228 0.001077 -0.994299 -0.106621 
0.106356 0.499999 -0.358788 0.000000 1.000000 0.000000 
0.169111 0.499999 0.137559 0.000000 1.000000 0.000000 
0.469497 0.499999 -0.025692 0.000000 1.000000 0.000000 
-0.063040 -0.182479 0.487972 0.011188 0.267363 0.963531 
-0.248139 0.499999 0.206647 -0.660332 0.709131 0.247175 
0.469669 0.499999 0.130594 0.000000 1.000000 0.000000 
0.296245 0.472532 -0.473058 -0.374890 -0.006321 -0.927048 
-0.400561 -0.311669 0.136849 -0.205647 0.274587 0.939314 
-0.067315 0.377905 0.463726 -0.000345 0.048943 0.998802 
-0.365453 -0.447915 0.156167 -0.332988 -0.555057 0.762254 
0.342185 0.257364 -0.063022 0.001108 -0.325143 -0.945664 
0.414406 0.287317 -0.005730 0.090098 -0.834279 -0.543931 
-0.500001 -0.181954 0.076843 -1.000000 0.000000 0.000000 
-0.500001 -0.149318 0.123219 -0.707473 0.161453 0.688052 
0.182284 -0.256119 0.071111 0.885261 -0.463252 0.041366 
0.152630 0.499999 -0.144688 0.000000 1.000000 0.000000 
-0.243170 0.126151 -0.070788 -0.003038 -0.901430 -0.432915 
-0.332814 0.131932 -0.059181 -0.416595 -0.144633 -0.897513 
-0.302182 -0.467213 0.100229 0.000424 -0.995974 0.089646 
-0.105801 0.499999 -0.207100 -0.599181 0.707861 -0.374052 
-0.285475 -0.190407 0.182063 -0.805220 0.146331 0.574638 
0.457778 0.359265 -0.072245 -0.001317 -0.325985 -0.945374 
0.001618 0.039697 0.432018 0.993482 0.033298 0.109015 
0.277371 0.015773 0.138660 0.530135 -0.844430 0.076780 
-0.100652 0.253358 0.466194 0.000288 0.101003 0.994886 
-0.403684 0.472533 -0.047786 -0.254580 -0.011385 -0.966985 
0.311887 0.279154 0.154729 0.257897 -0.493766 0.830472 
-0.230710 0.173200 -0.104552 -0.404998 -0.649047 -0.643983 
-0.401258 -0.319618 -0.009557 0.000473 -0.271104 -0.962550 
0.120228 0.035446 -0.037613 -0.009341 -0.634735 -0.772673 
-0.037549 0.242755 0.464400 0.336972 0.110848 0.934967 
0.354024 0.314396 -0.332121 0.200457 -0.975824 0.087083 
0.078721 0.235043 -0.249328 0.000472 -0.996009 -0.089248 
0.147437 0.173454 0.333881 0.173129 0.125400 0.976884 
-0.425377 -0.148036 0.123449 -0.055855 0.233296 0.970800 
0.043755 0.071621 -0.047382 -0.002944 -0.768323 -0.640056 
0.456176 0.426687 -0.498514 -0.089297 -0.022097 -0.995760 
-0.387070 -0.271446 -0.012966 -0.002150 -0.255758 -0.966739 
-0.202112 -0.352628 -0.007111 0.000243 -0.277773 -0.960647 
0.176307 -0.242002 0.201724 0.680656 -0.055888 0.730469 
0.223747 0.275866 -0.140737 0.405596 -0.910417 0.081436 
0.221089 -0.102989 0.125725 0.717724 -0.693569 0.061916 
-0.224217 -0.179769 0.442625 -0.996255 0.017012 0.084779 
0.336821 0.499999 0.172217 0.000000 1.000000 0.000000 
-0.094284 0.499999 0.307022 0.000000 1.000000 0.000000 
0.500001 0.257544 0.109760 1.000000 0.000000 0.000000 
-0.085809 -0.092404 -0.023888 0.000081 -0.201647 -0.979458 
0.048370 -0.270937 0.372122 0.216611 0.283322 0.934242 
0.302868 0.499999 0.088107 0.000000 1.000000 0.000000 
-0.285650 -0.027879 -0.027929 -0.002108 -0.334989 -0.942220 
-0.224854 -0.137126 0.420349 -1.000000 0.000000 0.000000 
-0.186788 -0.183899 0.485502 -0.389136 0.233238 0.891164 
-0.276555 -0.436274 -0.000337 -0.000098 -0.307359 -0.951594 
-0.204682 0.499999 0.096464 0.000000 1.000000 0.000000 
0.484831 0.307867 -0.458720 0.009387 -0.999930 0.007272 
-0.073427 -0.392874 0.315759 -0.000224 -0.995962 0.089780 
0.253061 0.307217 -0.458579 -0.300691 -0.696262 -0.651770 
0.085126 0.499999 0.307934 0.000000 1.000000 0.000000 
-0.071622 -0.044062 -0.026599 -0.000697 -0.266029 -0.963965 
0.304877 0.099831 0.170873 0.001278 0.326659 0.945141 
0.433006 0.499999 -0.047619 0.000000 1.000000 0.000000 
0.304747 0.499999 -0.239742 0.000000 1.000000 0.000000 
0.167447 -0.190317 0.037324 -0.000266 -0.328134 -0.944631 
0.025418 -0.289323 -0.011774 -0.000489 -0.261587 -0.965180 
0.440903 0.499999 0.180242 0.000000 1.000000 0.000000 
-0.170448 0.351373 -0.147709 -0.753852 -0.031074 -0.656310 
-0.500001 -0.369861 0.086809 -1.000000 0.000000 0.000000 
-0.180180 -0.445190 0.164090 0.000062 -0.995973 0.089657 
0.002824 0.080439 0.357772 0.785923 0.100556 0.610094 
-0.257021 0.397247 -0.094880 -0.593830 -0.027762 -0.804112 
-0.238887 -0.071762 -0.024991 0.000259 -0.207384 -0.978260 
0.017848 0.357153 0.347395 0.231653 0.053768 0.971312 
0.254420 0.327547 -0.083107 0.352416 -0.932012 0.084597 
-0.345990 0.149715 0.126704 -0.530465 0.113109 0.840127 
0.227617 0.034100 0.017074 -0.001412 -0.326351 -0.945248 
0.366592 0.306657 -0.373232 0.183073 -0.979046 0.089183 
-0.500001 -0.127624 -0.021976 -0.706799 -0.148214 -0.691713 
-0.095786 -0.329367 -0.008870 0.000492 -0.274546 -0.961574 
0.137286 0.374730 0.330433 0.176998 0.047829 0.983048 
-0.224854 0.071017 0.349329 -1.000000 0.000000 0.000000 
-0.043255 0.048397 -0.041153 -0.003115 -0.701335 -0.712825 
-0.317428 0.499999 0.056170 0.000000 1.000000 0.000000 
-0.100524 0.499999 0.080136 0.000000 1.000000 0.000000 
0.321698 0.284656 -0.362894 0.223545 -0.972506 0.065268 
0.298926 0.318398 0.302507 0.346357 -0.934310 0.084269 
-0.005206 -0.233332 0.467948 0.913747 0.131689 0.384349 
0.070777 -0.300536 0.047237 0.647656 -0.435693 -0.625070 
-0.068205 0.055686 0.473507 -0.000476 0.179730 0.983716 
-0.454117 0.137080 -0.035642 -0.120961 -0.120398 -0.985329 
0.039604 -0.241106 -0.015026 0.000117 -0.245750 -0.969333 
0.255788 0.499999 -0.118135 0.000000 1.000000 0.000000 
0.107274 -0.023713 0.333012 0.819461 -0.570807 0.051597 
-0.147537 0.082208 0.472288 0.000152 0.168688 0.985669 
0.276936 0.363887 0.317164 0.110182 0.051093 0.992597 
0.432946 0.372018 0.227150 0.110253 -0.990031 0.087651 
-0.224854 -0.238095 0.346275 -1.000000 0.000000 0.000000 
-0.484751 -0.373216 0.139293 0.000642 0.302065 0.953287 
-0.013455 0.077888 -0.049584 -0.003091 -0.795712 -0.605668 
0.194283 -0.159464 0.034559 -0.000031 -0.326499 -0.945198 
0.002824 0.499999 0.348800 0.485908 0.786136 0.381947 
-0.224854 -0.005030 0.389191 -1.000000 0.000000 0.000000 
0.457064 0.499999 0.218520 0.000000 1.000000 0.000000 
-0.421096 0.422613 -0.044853 -0.210114 -0.029405 -0.977235 
0.175380 0.146657 0.303680 0.620570 -0.781053 0.069645 
-0.274591 0.006477 0.182109 -0.852766 0.089372 0.514589 
-0.000570 -0.184454 0.455848 0.965176 0.047153 0.257317 
-0.207104 0.499999 0.179946 0.000000 1.000000 0.000000 
0.066566 -0.268332 0.273409 0.971590 -0.235802 0.020232 
0.336465 0.080697 0.108521 0.366532 -0.926729 0.082635 
0.359480 0.117797 0.155033 0.311502 -0.946430 0.085064 
-0.041410 -0.080899 0.479663 0.245234 0.213296 0.945709 
-0.411309 0.499999 0.060692 0.000000 1.000000 0.000000 
-0.433611 0.121127 0.110194 -0.028957 0.135405 0.990367 
-0.500001 0.035658 0.087490 -1.000000 0.000000 0.000000 
0.249060 0.098436 0.011274 -0.000300 -0.325804 -0.945437 
0.143568 -0.014285 0.181201 -0.001077 0.325469 0.945552 
0.418860 0.164006 0.005379 0.000002 -0.325769 -0.945449 
-0.271845 0.499999 -0.088370 -0.398747 0.705148 -0.586316 
0.500001 0.472530 0.267572 1.000000 0.000000 0.000000 
-0.335234 0.372395 0.126368 -0.590384 0.026357 0.806692 
-0.500001 -0.414926 0.094424 -1.000000 0.000000 0.000000 
0.487127 0.172078 0.152332 0.027150 -0.995671 0.088899 
0.117032 0.499999 0.145723 0.000000 1.000000 0.000000 
-0.163843 0.499999 0.075821 0.000000 1.000000 0.000000 
-0.500001 -0.127047 0.075890 -1.000000 0.000000 0.000000 
0.318108 0.499999 -0.070938 0.000000 1.000000 0.000000 
-0.500001 0.317347 0.105095 -0.706084 0.045309 0.706677 
-0.389868 -0.145642 -0.020955 -0.001798 -0.213896 -0.976855 
-0.415501 -0.396922 -0.003608 0.001462 -0.295568 -0.955321 
-0.113885 0.499999 -0.088667 0.000000 1.000000 0.000000 
0.076716 -0.186460 0.272980 0.929027 -0.368535 0.033013 
-0.135920 0.353845 -0.176453 -0.810241 -0.024104 -0.585601 
0.081925 0.469657 0.336840 0.202318 0.011033 0.979258 
-0.008611 -0.335774 0.481233 0.628102 -0.656824 0.417218 
-0.281452 -0.216742 -0.016645 0.000119 -0.238548 -0.971131 
-0.291359 0.499999 -0.049220 0.000000 1.000000 0.000000 
0.162628 -0.369404 0.160289 0.984647 -0.173774 0.016488 
0.209594 -0.140916 0.108399 0.763897 -0.642655 0.058787 
0.345586 0.499999 -0.260385 0.000000 1.000000 0.000000 
0.002824 -0.045833 0.364060 0.786217 0.130669 0.603978 
0.025992 0.499999 -0.153319 0.000000 1.000000 0.000000 
0.264717 0.168515 0.164722 0.001522 0.328258 0.944587 
0.228189 0.499999 -0.170774 0.000000 1.000000 0.000000 
-0.058177 -0.346038 0.451460 0.000037 -0.995965 0.089746 
-0.247659 -0.227227 0.233194 -0.933982 0.097132 0.343863 
0.101287 0.365641 -0.389199 -0.674894 -0.031406 -0.737246 
0.321402 0.148359 0.166520 -0.001156 0.326824 0.945085 
-0.161989 -0.112997 0.483112 -0.036575 0.246544 0.968441 
0.025171 -0.378969 -0.005051 -0.003473 -0.287723 -0.957707 
0.500001 0.451291 0.192271 1.000000 0.000000 0.000000 
-0.156166 0.000139 0.476337 0.000194 0.201760 0.979435 
0.179311 0.038461 -0.038252 0.348045 -0.857335 -0.379265 
-0.045925 0.499999 0.423606 0.000000 1.000000 0.000000 
-0.091666 0.132602 -0.074640 -0.001263 -0.911434 -0.411444 
0.428944 0.375084 -0.496154 -0.136783 -0.033463 -0.990036 
-0.500001 0.308904 -0.011037 -1.000000 0.000000 0.000000 
-0.263045 -0.033934 0.197842 -0.890557 0.083058 0.447223 
0.500001 0.382749 0.051478 1.000000 0.000000 0.000000 
-0.308323 0.268936 -0.071155 -0.481826 -0.064444 -0.873894 
0.382547 0.499999 0.132583 0.000000 1.000000 0.000000 
0.231985 0.294304 -0.421035 -0.000106 -0.995906 -0.090394 
0.342708 0.499999 0.110345 0.000000 1.000000 0.000000 
-0.231871 -0.193617 0.269444 -0.980478 0.052406 0.189517 
-0.224854 0.034584 0.369736 -1.000000 0.000000 0.000000 
-0.121254 0.499999 -0.151724 0.000000 1.000000 0.000000 
0.340529 0.499999 -0.443107 0.000000 1.000000 0.000000 
0.000047 0.136620 0.435077 0.975837 0.017502 0.217797 
0.500001 0.499999 0.099240 0.707107 0.707107 0.000000 
0.389301 0.197907 0.002365 -0.000154 -0.326130 -0.945325 
-0.262366 -0.388274 -0.004329 0.000181 -0.289891 -0.957060 
-0.013847 0.499999 -0.175557 0.000000 1.000000 0.000000 
-0.120609 0.294858 0.465190 0.000492 0.083828 0.996480 
0.500001 0.219283 0.127265 1.000000 0.000000 0.000000 
0.347454 0.472530 -0.484958 -0.286726 -0.012166 -0.957935 
-0.225557 0.106413 0.288413 -0.998428 0.011923 0.054773 
-0.500001 -0.326214 0.135520 -0.707983 0.200729 0.677103 
-0.103928 -0.431413 0.204002 0.000058 -0.995969 0.089696 
0.500001 0.226363 0.027782 1.000000 0.000000 0.000000 
0.122676 -0.000836 0.251819 0.767530 -0.638564 0.055984 
-0.324019 -0.361241 -0.006382 0.000374 -0.285366 -0.958419 
0.429773 0.421367 -0.106323 0.095378 -0.991475 0.088771 
0.418008 0.285481 0.154179 0.000503 0.327472 0.944861 
0.223824 -0.110654 0.083095 0.707572 -0.703909 0.062075 
0.017840 -0.101999 0.364936 0.230969 0.225378 0.946498 
-0.228280 -0.371166 0.297824 -0.990719 0.042570 0.129084 
0.500001 0.366133 -0.451630 1.000000 0.000000 0.000000 
-0.303128 0.073869 -0.048257 -0.002364 -0.780159 -0.625577 
-0.455171 -0.485954 0.045901 0.000193 -0.995975 0.089635 
0.036232 0.499999 -0.097958 0.000000 1.000000 0.000000 
-0.469858 -0.472700 0.084343 -0.000063 -0.995976 0.089620 
-0.306149 0.150151 0.148751 -0.730254 0.082585 0.678166 
-0.105945 0.324904 -0.205754 -0.848345 -0.028010 -0.528703 
0.002824 0.404849 0.349206 0.786128 0.024568 0.617575 
-0.256431 -0.458947 0.124177 -0.000300 -0.995959 0.089808 
-0.125561 -0.362876 -0.006311 -0.000304 -0.284869 -0.958567 
-0.224854 0.223532 0.332394 -1.000000 0.000000 0.000000 
-0.384971 -0.365562 -0.006071 -0.000418 -0.284728 -0.958608 
0.358309 0.331083 -0.290268 0.192932 -0.977130 0.089410 
-0.103603 0.110042 0.471078 0.000250 0.159892 0.987134 
-0.238121 0.400185 0.228091 -0.965552 0.009848 0.260025 
-0.500001 -0.318681 0.087327 -1.000000 0.000000 0.000000 
0.049253 -0.133622 0.362063 0.215180 0.236413 0.947527 
0.066425 -0.352559 0.005863 0.968430 -0.248051 0.024790 
0.109791 0.499999 -0.038282 0.000000 1.000000 0.000000 
0.342102 0.170130 0.004787 0.001050 -0.327768 -0.944758 
-0.163551 0.499999 -0.118100 0.000000 1.000000 0.000000 
0.407888 0.149345 0.152201 0.198439 -0.976109 0.088502 
0.059852 -0.404453 0.282161 0.696535 -0.714634 0.064324 
-0.139760 -0.410939 -0.002444 0.000170 -0.303128 -0.952950 
-0.231282 0.499999 0.000944 0.000000 1.000000 0.000000 
0.205318 -0.075127 0.186657 0.000031 0.324603 0.945850 
0.139358 0.034666 0.217748 0.718877 -0.692357 0.062106 
-0.084043 0.499999 0.362383 0.000000 1.000000 0.000000 
-0.176901 0.387206 0.462890 -0.159647 0.051994 0.985804 
-0.046446 0.499999 -0.013790 0.000000 1.000000 0.000000 
-0.500001 -0.429553 0.048235 -1.000000 0.000000 0.000000 
0.258803 0.164840 -0.024594 0.426739 -0.900805 0.080275 
-0.156747 -0.333699 -0.008490 -0.000528 -0.273240 -0.961946 
-0.020169 0.195542 0.458770 0.689171 0.090953 0.718867 
0.303100 0.315500 -0.236733 0.276831 -0.956997 0.086731 
-0.119178 -0.445191 0.164091 -0.000052 -0.995959 0.089804 
0.017843 0.190853 0.351214 0.232075 0.116520 0.965694 
-0.085043 0.499999 0.405264 0.000000 1.000000 0.000000 
-0.415933 0.219422 -0.042401 -0.222029 -0.093595 -0.970537 
0.044602 -0.384834 0.338986 0.000176 -0.995981 0.089561 
-0.119884 0.499999 0.168620 0.000000 1.000000 0.000000 
0.399745 0.367144 -0.072958 -0.000219 -0.326599 -0.945163 
-0.297397 -0.353787 0.184193 -0.755046 0.198074 0.625038 
-0.227191 -0.088432 0.284118 -0.994504 0.023578 0.102012 
-0.209108 -0.038134 -0.027088 0.001267 -0.290515 -0.956870 
-0.300865 -0.118819 0.164765 -0.745351 0.147085 0.650245 
0.473245 0.499999 -0.418943 0.000000 1.000000 0.000000 
-0.180180 -0.472720 0.084264 0.000002 -0.995957 0.089827 
-0.155040 0.230918 -0.157770 -0.778368 -0.054964 -0.625397 
0.002824 -0.038552 0.416386 0.999993 0.002718 0.002694 
-0.335943 -0.181001 0.147201 -0.581256 0.193428 0.790396 
0.125471 -0.267403 0.204012 0.000788 0.329475 0.944164 
-0.300031 0.233174 0.150616 -0.752347 0.065752 0.655478 
0.065601 -0.293208 0.232817 0.975609 -0.218902 0.016417 
-0.316605 0.351456 -0.069499 -0.464717 -0.043046 -0.884412 
-0.469501 0.198209 0.107719 -0.000919 0.106556 0.994306 
-0.183693 0.305136 0.462985 -0.324639 0.070985 0.943170 
0.095431 0.499999 -0.164205 0.000000 1.000000 0.000000 
0.062079 -0.323439 0.284694 0.990252 -0.138704 0.012772 
-0.064260 0.201792 0.467687 0.001592 0.119483 0.992835 
0.500001 0.185654 0.003415 0.706315 -0.229276 -0.669739 
-0.444805 -0.337639 0.136428 -0.005500 0.291429 0.956577 
0.500001 0.380137 -0.021775 1.000000 0.000000 0.000000 
-0.365509 -0.393765 0.151440 -0.413521 0.279466 0.866544 
0.160315 -0.444625 0.084906 0.997891 -0.064639 0.005883 
-0.272121 0.499999 0.021587 0.000000 1.000000 0.000000 
0.305989 0.499999 0.201550 0.000000 1.000000 0.000000 
-0.291431 0.109167 0.161635 -0.789248 0.083756 0.608337 
0.032871 -0.015263 0.357584 0.225568 0.191002 0.955321 
-0.316799 0.000953 -0.031435 0.005124 -0.494135 -0.869370 
-0.484751 0.452422 0.103571 -0.000692 0.018027 0.999837 
-0.017601 -0.477855 0.069395 0.000021 -0.995948 0.089934 
-0.226391 0.370098 0.272832 -0.996867 -0.001093 0.079085 
0.299451 0.096382 0.011456 -0.000437 -0.325749 -0.945456 
0.164783 0.216882 -0.196500 0.000960 -0.995962 -0.089774 
0.000440 -0.072425 0.443623 0.980435 0.036602 0.193408 
0.104496 -0.315000 0.208302 -0.001123 0.326051 0.945351 
0.315889 0.230905 -0.000640 0.200324 -0.811339 -0.549180 
-0.381844 0.366856 0.110238 -0.323485 0.046241 0.945103 
0.372307 0.499999 0.077222 0.000000 1.000000 0.000000 
-0.021576 0.383232 -0.295497 -0.820941 -0.019793 -0.570670 
-0.194809 0.008602 -0.032567 -0.003586 -0.531516 -0.847041 
-0.500001 -0.018312 0.057781 -1.000000 0.000000 0.000000 
0.151203 0.206524 -0.058492 0.343530 -0.753956 -0.559944 
0.400665 0.499999 -0.397193 0.000000 1.000000 0.000000 
-0.500001 0.437065 -0.011294 -1.000000 0.000000 0.000000 
0.011232 -0.337451 -0.008197 -0.000010 -0.276704 -0.960955 
-0.338918 0.232621 0.127389 -0.577546 0.070225 0.813332 
-0.484753 0.167112 -0.034857 -0.043377 -0.110693 -0.992908 
-0.163043 -0.050543 -0.026082 -0.000062 -0.246506 -0.969141 
0.205066 0.309593 0.324211 0.144581 0.072981 0.986798 
-0.224854 0.183217 0.351470 -1.000000 0.000000 0.000000 
0.337346 0.499999 -0.401509 0.000000 1.000000 0.000000 
-0.250275 -0.246005 -0.014700 -0.002261 -0.249457 -0.968383 
-0.256736 -0.187496 0.215696 -0.905100 0.109571 0.410838 
-0.500001 -0.347802 -0.007409 -0.708746 -0.197279 -0.677319 
0.420266 0.499999 -0.001504 0.000000 1.000000 0.000000 
-0.293995 -0.035865 0.165934 -0.773771 0.122551 0.621498 
-0.060701 0.315553 0.464750 0.029411 0.071353 0.997017 
0.190403 0.499999 0.047600 0.000000 1.000000 0.000000 
0.120031 0.499999 0.017079 0.000000 1.000000 0.000000 
-0.042927 0.499999 0.356906 0.000000 1.000000 0.000000 
-0.009606 0.499999 0.137091 0.000000 1.000000 0.000000 
0.377689 0.455170 0.310619 0.059099 0.014496 0.998147 
0.500001 0.499999 -0.125975 0.707107 0.707107 0.000000 
0.017846 0.032615 0.357540 0.230887 0.175904 0.956948 
-0.500001 0.373137 0.104233 -0.708082 0.032957 0.705361 
0.192704 0.151355 0.223265 0.576377 -0.813961 0.072506 
0.156629 0.499999 -0.316213 0.000000 1.000000 0.000000 
-0.224854 0.278792 0.383569 -1.000000 0.000000 0.000000 
-0.012726 0.499999 0.023648 0.000000 1.000000 0.000000 
-0.256892 -0.421153 0.233724 -0.675024 -0.638554 0.369584 
0.110624 -0.131176 -0.021777 0.550463 -0.547726 -0.630069 
-0.245206 0.267925 0.214878 -0.945487 0.030066 0.324268 
0.227405 0.114743 -0.050194 0.316119 -0.769299 -0.555201 
0.423774 0.137968 0.097824 0.160296 -0.983113 0.088288 
-0.032171 0.171297 -0.103063 -0.002301 -0.967197 -0.254016 
0.088813 0.302293 0.337804 0.200126 0.074316 0.976948 
-0.249324 0.314666 -0.097711 -0.608232 -0.048577 -0.792272 
0.373546 0.264635 -0.017936 0.211604 -0.973531 0.086383 
-0.134098 0.013268 -0.033266 -0.002414 -0.558007 -0.829832 
0.311329 0.394522 0.314507 0.094022 0.039301 0.994794 
0.500001 0.276002 0.038105 1.000000 0.000000 0.000000 
-0.237455 -0.154091 0.250299 -0.966133 0.063188 0.250188 
-0.280558 0.275536 0.166758 -0.829093 0.049158 0.556946 
0.076964 0.022298 -0.034771 0.009842 -0.588941 -0.808116 
0.204913 0.239358 -0.182280 0.435559 -0.896455 0.081592 
-0.240225 0.144166 0.228302 -0.958564 0.039861 0.282076 
0.460006 0.174126 0.004470 0.001430 -0.325212 -0.945640 
0.059438 -0.448690 0.060554 0.701513 -0.272745 -0.658400 
-0.500001 -0.281422 0.103813 -1.000000 0.000000 0.000000 
0.345828 0.499999 0.223788 0.000000 1.000000 0.000000 
-0.398759 0.499999 0.012956 0.000000 1.000000 0.000000 
0.212950 0.499999 -0.011729 0.000000 1.000000 0.000000 
-0.241181 -0.483750 0.052336 0.000019 -0.995958 0.089819 
0.190319 0.499999 -0.391493 0.000000 1.000000 0.000000 
-0.500001 0.308908 0.065562 -1.000000 0.000000 0.000000 
0.214594 -0.105176 0.029649 -0.001079 -0.324331 -0.945943 
0.244727 -0.028269 0.182421 0.498047 -0.349199 0.793731 
-0.119178 -0.390097 0.323740 0.000087 -0.995967 0.089723 
0.440496 0.320174 0.151018 -0.002092 0.326824 0.945083 
-0.322035 0.191305 0.137266 -0.659608 0.076978 0.747657 
0.397931 0.329781 -0.343871 0.138957 -0.986202 0.089983 
-0.082165 0.499999 0.034534 0.000000 1.000000 0.000000 
0.431077 0.499999 0.250090 0.000000 1.000000 0.000000 
-0.424777 -0.373693 0.139681 -0.050796 0.298847 0.952948 
-0.377468 0.444982 0.110549 -0.355895 0.016263 0.934385 
-0.203593 -0.143117 0.474832 -0.721785 0.161191 0.673085 
-0.104550 0.407449 0.463393 -0.000079 0.037340 0.999303 
-0.080511 0.202586 -0.155241 0.000165 -0.995611 -0.093593 
0.002824 0.398534 0.389149 1.000000 0.000000 0.000000 
0.134182 0.164842 -0.096738 0.304889 -0.946600 -0.104836 
-0.334371 0.308553 -0.063028 -0.422281 -0.059419 -0.904515 
0.072695 -0.306925 -0.010493 0.649179 -0.408632 -0.641550 
0.017835 0.127516 0.353425 0.233696 0.141110 0.962016 
0.382319 0.250950 0.157246 0.000311 0.323628 0.946184 
0.197469 0.499999 -0.336857 0.000000 1.000000 0.000000 
0.376423 0.499999 -0.007818 0.000000 1.000000 0.000000 
-0.030472 -0.391241 0.320436 0.000005 -0.995954 0.089865 
0.235015 0.190725 -0.057067 -0.001863 -0.325686 -0.945476 
-0.102490 0.276301 -0.208614 -0.850413 -0.040133 -0.524583 
-0.073427 -0.420397 0.235932 0.000286 -0.995961 0.089783 
0.457358 0.499999 -0.261146 0.000000 1.000000 0.000000 
0.339725 0.243023 0.158006 0.001507 0.322257 0.946651 
0.106792 0.499999 0.090362 0.000000 1.000000 0.000000 
-0.224854 0.319007 0.306817 -0.999993 -0.000501 0.003659 
0.184571 0.026985 0.017710 0.003200 -0.326471 -0.945202 
-0.224854 -0.298852 0.427287 -1.000000 0.000000 0.000000 
-0.219099 -0.275254 -0.012696 0.000497 -0.262293 -0.964988 
-0.374186 0.368015 -0.053108 -0.330520 -0.044975 -0.942727 
0.096289 0.499999 -0.077467 0.000000 1.000000 0.000000 
0.269369 0.274339 -0.362968 0.000669 -0.995979 -0.089582 
-0.076745 0.230256 -0.235521 -0.578254 -0.703307 -0.413499 
0.464798 0.320830 -0.497914 -0.045757 -0.692626 -0.719844 
0.007024 -0.148903 -0.020785 -0.000341 -0.215707 -0.976458 
0.204136 0.079810 -0.047081 0.339999 -0.772709 -0.536023 
-0.056000 0.423483 0.463238 0.059023 0.014293 0.998154 
0.230703 0.139372 0.007599 0.313539 -0.768245 -0.558116 
0.169208 -0.291894 0.191943 0.948928 -0.314287 0.027555 
-0.149604 0.499999 -0.040343 0.000000 1.000000 0.000000 
0.199826 0.388981 0.323467 0.145725 0.043228 0.988380 
-0.422527 -0.003564 0.115776 -0.072576 0.179231 0.981126 
0.295507 0.499999 -0.337984 0.000000 1.000000 0.000000 
0.151504 0.086041 0.279001 0.685182 -0.725381 0.065932 
0.435854 0.389519 -0.202721 0.085715 -0.992282 0.089608 
0.343079 0.346543 -0.221476 0.217019 -0.972498 0.084560 
0.325960 0.053979 0.062852 0.393448 -0.915663 0.082218 
0.070073 0.499999 0.181567 0.000000 1.000000 0.000000 
-0.182333 0.105423 -0.060670 -0.003211 -0.863894 -0.503663 
0.110828 0.132243 0.339847 0.191390 0.138495 0.971694 
-0.012112 -0.106597 0.468266 0.802832 0.137352 0.580169 
-0.108784 0.176049 -0.107615 -0.003006 -0.972121 -0.234462 
-0.155603 0.499999 0.216944 0.000000 1.000000 0.000000 
0.005754 0.499999 0.220133 0.000000 1.000000 0.000000 
0.002824 0.105513 0.405454 1.000000 0.000000 0.000000 
0.500001 0.445061 -0.386521 1.000000 0.000000 0.000000 
0.442324 0.275320 -0.064698 0.059159 -0.837828 -0.542719 
-0.500001 -0.239014 0.045392 -1.000000 0.000000 0.000000 
-0.119263 0.499999 0.434841 0.000000 1.000000 0.000000 
0.144075 0.083173 0.323585 0.704433 -0.706915 0.063608 
0.272943 0.499999 -0.204936 0.000000 1.000000 0.000000 
0.160860 0.002530 -0.031486 0.416649 -0.785230 -0.458059 
-0.294172 0.316168 0.153693 -0.775949 0.047151 0.629031 
-0.343776 -0.445850 0.000458 0.000025 -0.306334 -0.951924 
-0.057428 -0.244218 0.492749 0.056555 0.296492 0.953359 
-0.311961 0.499999 -0.000651 0.000000 1.000000 0.000000 
-0.218125 0.417594 -0.116131 -0.668784 -0.017253 -0.743256 
0.120098 0.240314 0.335220 0.185396 0.097583 0.977807 
0.407024 0.499999 -0.256712 0.000000 1.000000 0.000000 
-0.149679 -0.362564 0.403565 0.000053 -0.995962 0.089777 
-0.049721 -0.341791 -0.007910 0.000486 -0.279282 -0.960209 
0.141284 -0.225749 0.040540 0.000666 -0.324706 -0.945815 
0.229310 0.499999 0.028431 0.000000 1.000000 0.000000 
0.447243 0.357949 0.176125 0.087385 -0.992218 0.088696 
-0.227604 0.289176 0.266522 -0.993543 0.009721 0.113038 
0.059729 -0.452163 0.019712 0.996832 -0.079260 0.006617 
-0.500001 0.000783 -0.000827 -1.000000 0.000000 0.000000 
0.500001 0.315506 -0.043593 1.000000 0.000000 0.000000 
0.500001 0.445663 -0.271029 1.000000 0.000000 0.000000 
-0.469816 0.345300 0.104631 0.001716 0.056806 0.998384 
-0.280629 -0.076615 0.180187 -0.824689 0.120864 0.552521 
-0.154482 0.445077 0.463102 -0.000001 0.021906 0.999760 
0.303336 0.499999 -0.127845 0.000000 1.000000 0.000000 
-0.226621 0.092447 -0.054711 0.005099 -0.829077 -0.559111 
0.485943 0.250995 0.157253 -0.002602 0.326088 0.945336 
-0.187923 -0.304489 -0.010639 -0.001955 -0.268474 -0.963285 
0.180436 0.445062 0.325025 0.157607 0.020576 0.987288 
0.202424 0.074346 0.173198 -0.001972 0.326042 0.945353 
-0.123883 0.499999 0.340145 0.000000 1.000000 0.000000 
-0.419767 0.364547 -0.044461 -0.211801 -0.043427 -0.976347 
0.073856 -0.176098 0.361255 0.762317 -0.059960 0.644420 
-0.122611 0.152877 0.469372 0.000290 0.140899 0.990024 
0.214070 0.499999 0.187477 0.000000 1.000000 0.000000 
0.471546 0.374463 0.212022 0.049618 -0.994778 0.089190 
0.062280 -0.406381 -0.002827 0.688309 -0.318896 -0.651564 
-0.381474 0.273951 -0.049924 -0.311484 -0.075023 -0.947285 
-0.373139 0.499999 -0.039640 0.000000 1.000000 0.000000 
-0.224854 0.119303 0.418164 -0.999141 0.009218 0.040392 
0.460878 0.365676 -0.284761 0.054112 -0.994539 0.089240 
0.279147 0.499999 -0.378144 0.000000 1.000000 0.000000 
-0.025182 -0.268114 0.488555 0.579145 0.253167 0.774918 
0.382305 0.499999 -0.351591 0.000000 1.000000 0.000000 
0.296761 0.499999 -0.427774 0.000000 1.000000 0.000000 
0.166522 0.217523 0.330400 0.163232 0.105016 0.980983 
0.002824 0.009234 0.403327 1.000000 0.000000 0.000000 
0.129196 0.237291 -0.255794 0.000777 -0.995851 -0.090995 
0.277907 0.288614 -0.404496 0.000645 -0.995997 -0.089381 
-0.048657 0.499999 -0.268766 -0.598022 0.708856 -0.374022 
0.011753 0.499999 -0.037155 0.000000 1.000000 0.000000 
0.484751 0.499999 -0.204219 0.000000 1.000000 0.000000 
-0.234689 -0.406228 0.277040 -0.706035 -0.672176 0.222924 
-0.262664 0.141854 0.190803 -0.893103 0.054659 0.446519 
0.258788 0.499999 -0.246779 0.000000 1.000000 0.000000 
-0.500001 -0.090420 0.003998 -1.000000 0.000000 0.000000 
0.239078 -0.063322 0.115610 0.652968 -0.754407 0.067104 
-0.224854 0.149505 0.312191 -0.999996 -0.000561 0.002637 
0.335520 0.336909 -0.070272 0.001263 -0.327609 -0.944813 
0.288508 0.499999 -0.037815 0.000000 1.000000 0.000000 
-0.011650 -0.349206 0.442259 -0.000075 -0.995955 0.089851 
-0.117686 -0.031654 -0.027620 0.000690 -0.317660 -0.948204 
0.001488 -0.135505 0.442784 0.992286 0.045786 0.115203 
0.077193 0.499999 0.123485 0.000000 1.000000 0.000000 
0.111125 -0.119680 0.190657 0.000618 0.324938 0.945735 
-0.500001 0.364397 0.063939 -1.000000 0.000000 0.000000 
0.077072 0.499999 -0.118602 0.000000 1.000000 0.000000 
0.144754 -0.444517 0.165985 -0.000032 -0.995979 0.089591 
0.425265 0.499999 -0.215910 0.000000 1.000000 0.000000 
-0.456050 0.156323 0.108981 0.000138 0.120855 0.992670 
0.022102 0.499999 0.260226 0.000000 1.000000 0.000000 
0.114972 0.224485 -0.218767 -0.000498 -0.995996 -0.089402 
0.079779 -0.257876 0.000277 0.915396 -0.400957 0.035838 
-0.042927 -0.376336 0.363653 0.000218 -0.995971 0.089677 
-0.224854 0.025781 0.326549 -1.000000 0.000000 0.000000 
0.335348 0.499999 -0.026015 0.000000 1.000000 0.000000 
0.274148 0.499999 -0.163738 0.000000 1.000000 0.000000 
-0.104524 0.499999 0.251662 0.000000 1.000000 0.000000 
0.229189 0.499999 -0.213656 0.000000 1.000000 0.000000 
0.257694 0.499999 0.178012 0.000000 1.000000 0.000000 
0.157629 0.499999 -0.359095 0.000000 1.000000 0.000000 
0.249769 -0.058526 0.064646 0.613104 -0.786986 0.068965 
0.058983 -0.489967 0.034301 0.694086 -0.716985 0.064637 
-0.419646 -0.179295 -0.018964 -0.000492 -0.223800 -0.974635 
0.194872 -0.205418 0.064390 0.825165 -0.562764 0.048979 
0.016752 0.499999 -0.251561 0.000000 1.000000 0.000000 
0.500001 0.416297 -0.308188 1.000000 0.000000 0.000000 
-0.165194 0.040372 -0.038937 0.000871 -0.671983 -0.740566 
-0.134429 -0.376345 0.363654 0.000122 -0.995956 0.089839 
0.253440 0.307322 -0.138885 0.352210 -0.932182 0.083575 
0.038462 0.499999 0.300386 0.000000 1.000000 0.000000 
-0.326117 -0.267120 -0.013261 0.000946 -0.255016 -0.966937 
0.336346 0.499999 -0.358628 0.000000 1.000000 0.000000 
0.366781 0.109974 0.115379 0.292779 -0.952398 0.084959 
-0.038340 -0.167906 -0.019669 0.000247 -0.221545 -0.975150 
0.160871 0.499999 -0.003565 0.000000 1.000000 0.000000 
0.000157 -0.378041 0.358666 -0.000200 -0.995950 0.089910 
0.065158 -0.018732 -0.028854 -0.000374 -0.377322 -0.926082 
0.291349 0.291208 0.244599 0.361690 -0.928409 0.085078 
0.500001 0.235646 0.068355 1.000000 0.000000 0.000000 
-0.384488 -0.349790 0.142764 -0.297699 0.282001 0.912059 
-0.224854 0.075768 0.394480 -1.000000 0.000000 0.000000 
0.397907 0.499999 0.215624 0.000000 1.000000 0.000000 
-0.329709 -0.067409 0.143769 -0.607626 0.165578 0.776772 
0.500001 0.406147 0.217403 1.000000 0.000000 0.000000 
-0.209691 0.317441 -0.120184 -0.684754 -0.043864 -0.727453 
-0.291496 -0.304066 0.185242 -0.781877 0.175423 0.598243 
0.002824 -0.101938 0.415092 1.000000 0.000000 0.000000 
-0.291008 0.311728 -0.078634 -0.523212 -0.055577 -0.850388 
0.314333 0.213978 -0.045512 0.315934 -0.944984 0.084802 
0.212829 0.499999 -0.253816 0.000000 1.000000 0.000000 
0.020607 -0.450487 0.000862 0.000839 -0.311776 -0.950155 
-0.500001 0.336964 0.027281 -1.000000 0.000000 0.000000 
0.180375 0.119507 0.197637 0.603743 -0.793949 0.071698 
-0.166545 0.125022 0.470454 -0.077739 0.146282 0.986184 
-0.224854 0.066095 0.307475 -0.999917 0.003904 0.012252 
0.060229 -0.395227 0.215529 0.710883 0.190405 0.677045 
-0.232980 0.357373 -0.106962 -0.640678 -0.036836 -0.766926 
-0.353796 -0.394721 -0.003746 0.000520 -0.293601 -0.955928 
-0.484927 0.499999 -0.014901 0.000000 1.000000 0.000000 
-0.307731 -0.407137 -0.002728 0.000324 -0.296673 -0.954979 
-0.257173 0.063076 -0.044717 0.003973 -0.751389 -0.659847 
0.241011 0.259918 0.321991 0.406388 -0.547906 0.731196 
0.293389 0.203325 0.161538 0.000411 0.324575 0.945860 
-0.219568 -0.257792 0.465935 -0.947340 0.079396 0.310230 
-0.273396 0.101089 -0.058462 -0.007272 -0.846280 -0.532689 
-0.164843 0.499999 0.118702 0.000000 1.000000 0.000000 
-0.352800 0.499999 0.019993 0.000000 1.000000 0.000000 
-0.388747 -0.261159 0.135027 -0.272118 0.260895 0.926221 
0.125474 0.163884 -0.054621 0.378561 -0.733168 -0.564939 
-0.226324 0.023006 0.283720 -0.996702 0.015163 0.079717 
-0.118884 0.499999 0.125739 0.000000 1.000000 0.000000 
0.183229 0.499999 -0.220693 0.000000 1.000000 0.000000 
