0.045635 -0.002185 -0.030367 0.044565 -0.228046 -0.972630 
0.112342 0.255550 -0.068684 0.000000 1.000000 0.000000 
-0.334713 0.007798 0.125442 -0.306211 0.092337 0.947475 
-0.446261 0.109401 0.107339 0.005603 0.049723 0.998747 
-0.319432 0.166630 0.121940 -0.375306 0.024449 0.926579 
0.002600 -0.072399 0.398171 1.000000 0.000000 0.000000 
-0.460300 -0.078690 0.084467 -1.000000 0.000000 0.000000 
0.460300 0.192353 0.211853 1.000000 0.000000 0.000000 
-0.212150 -0.145121 0.281304 -0.966159 0.030493 0.256139 
0.448663 0.255550 0.296296 0.000000 1.000000 0.000000 
0.133539 0.227694 0.328915 0.121201 0.009147 0.992586 
-0.119903 0.255550 -0.128827 0.000000 1.000000 0.000000 
-0.077311 0.130523 -0.228198 -0.760958 -0.025343 -0.648306 
-0.203493 -0.227029 0.000331 0.000026 -0.161690 -0.986842 
0.068191 0.255550 0.010042 0.000000 1.000000 0.000000 
-0.207000 -0.163228 0.367078 -1.000000 0.000000 0.000000 
0.122800 0.255550 0.185882 0.000000 1.000000 0.000000 
-0.379262 0.227481 0.104550 -0.048095 0.006975 0.998818 
-0.207000 -0.170503 0.406670 -1.000000 0.000000 0.000000 
0.029469 -0.140869 0.375022 0.164090 0.148863 0.975148 
0.460300 0.173380 -0.443045 1.000000 0.000000 0.000000 
0.228924 0.255550 -0.060053 0.000000 1.000000 0.000000 
0.123721 0.255550 0.143001 0.000000 1.000000 0.000000 
-0.460300 0.222777 0.075626 -1.000000 0.000000 0.000000 
-0.460300 -0.203134 0.024607 -1.000000 0.000000 0.000000 
-0.171957 -0.093991 0.485502 -0.417375 0.153014 0.895759 
0.224099 0.255550 -0.329820 0.000000 1.000000 0.000000 
0.125717 0.017076 -0.037570 -0.018537 -0.347939 -0.937334 
-0.101240 -0.192919 -0.005165 -0.000219 -0.152412 -0.988317 
0.460300 0.106216 0.161193 1.000000 0.000000 0.000000 
-0.460300 0.125901 -0.036675 -1.000000 0.000000 0.000000 
-0.067800 0.164860 -0.240560 -0.761313 -0.017245 -0.648155 
0.002431 0.215034 0.416425 0.980828 0.002646 0.194859 
0.387497 0.162659 -0.398035 0.151516 -0.973743 0.169907 
-0.081637 -0.190935 0.371635 -0.000487 -0.984775 0.173835 
-0.432483 -0.193119 -0.005135 -0.001625 -0.152672 -0.988276 
0.342523 0.255550 -0.406951 0.000000 1.000000 0.000000 
0.384944 0.255550 -0.157828 0.000000 1.000000 0.000000 
-0.000448 0.255550 -0.006753 0.000000 1.000000 0.000000 
0.386408 0.099766 0.002551 0.000345 -0.174660 -0.984629 
0.106596 0.255550 -0.295570 0.000000 1.000000 0.000000 
0.002600 -0.109251 0.427417 1.000000 0.000000 0.000000 
-0.353405 0.123991 -0.048749 -0.247971 -0.036663 -0.968073 
0.126118 0.205083 -0.409867 -0.510157 -0.013112 -0.859982 
-0.028910 0.255550 -0.265521 0.000000 1.000000 0.000000 
0.408511 0.255550 -0.019426 0.000000 1.000000 0.000000 
-0.103810 0.255550 0.110538 0.000000 1.000000 0.000000 
0.149717 -0.195938 0.119692 0.988836 -0.147182 0.023261 
-0.460300 -0.122307 0.086764 -1.000000 0.000000 0.000000 
-0.232901 -0.037890 0.214572 -0.855940 0.058792 0.513722 
-0.216065 0.227465 0.236559 -0.945149 0.012368 0.326406 
0.030261 -0.007801 0.357584 0.167903 0.100366 0.980681 
0.054300 -0.250423 0.034301 -0.000178 -0.984885 0.173208 
-0.152513 0.255550 0.419019 0.000000 1.000000 0.000000 
-0.131628 -0.079519 0.486019 -0.000074 0.140754 0.990045 
0.215924 0.184008 -0.452897 -0.361001 -0.029369 -0.932103 
-0.142439 0.255550 -0.068024 0.000000 1.000000 0.000000 
0.147300 -0.245280 0.063400 0.999794 -0.019980 0.003502 
0.095568 -0.156445 0.047740 0.001405 -0.176177 -0.984358 
-0.207000 0.227472 0.300517 -1.000000 0.000000 0.000000 
0.460300 0.224406 -0.339059 1.000000 0.000000 0.000000 
-0.144301 -0.170554 -0.008490 0.001841 -0.144673 -0.989478 
-0.077233 0.255550 0.435002 0.000000 1.000000 0.000000 
0.163444 -0.133149 0.127557 0.951932 -0.303131 0.044016 
-0.060580 0.255550 0.074694 0.000000 1.000000 0.000000 
0.096835 -0.034398 0.228703 0.887199 -0.453742 0.083641 
-0.059129 -0.170735 0.486173 -0.000263 -0.984781 0.173801 
-0.245976 -0.224931 0.178805 -0.000222 -0.984865 0.173321 
-0.001640 -0.220419 0.204476 0.000145 -0.984814 0.173614 
0.460300 0.227471 -0.451366 1.000000 0.000000 0.000000 
0.382677 0.255550 -0.467359 0.000000 1.000000 0.000000 
0.138861 -0.003602 0.006511 0.792293 -0.602367 0.097087 
-0.109715 -0.193753 0.355670 0.000673 -0.984722 0.174134 
0.127181 0.094837 -0.056607 0.671225 -0.731530 0.119668 
0.048874 -0.082478 -0.020033 0.000879 -0.112396 -0.993663 
-0.165969 0.255550 0.389460 0.000000 1.000000 0.000000 
0.413379 0.158955 -0.469460 0.000704 -0.985124 -0.171844 
0.072079 0.073114 -0.080353 0.007711 -0.749150 -0.662355 
0.240737 0.133813 0.252965 0.544912 -0.825781 0.145451 
0.312253 0.160121 0.190509 0.358320 -0.921169 0.151833 
-0.307349 -0.002771 0.138316 -0.441285 0.096929 0.892117 
0.380119 0.255550 -0.427595 0.000000 1.000000 0.000000 
-0.460300 -0.234677 0.042671 -1.000000 0.000000 0.000000 
0.082909 0.090199 -0.107843 -0.005432 -0.932038 -0.362319 
0.376660 0.255550 0.228104 0.000000 1.000000 0.000000 
0.460300 0.241511 -0.394626 1.000000 0.000000 0.000000 
-0.194751 -0.009634 0.460770 -0.622402 0.074467 0.779147 
0.359536 0.255550 -0.210467 0.000000 1.000000 0.000000 
-0.026106 0.032429 -0.045097 0.027342 -0.453745 -0.890712 
0.305459 0.163931 -0.277465 0.306363 -0.938345 0.160159 
-0.255884 -0.190988 -0.005439 -0.000343 -0.147244 -0.989100 
0.054342 -0.240413 0.091040 -0.000188 -0.984782 0.173794 
-0.444089 -0.230720 0.146000 0.000000 -0.984843 0.173450 
-0.394005 0.030035 0.112775 -0.045946 0.082563 0.995526 
0.171399 0.119897 -0.126663 0.610169 -0.780936 0.133536 
-0.397455 -0.164457 -0.009365 0.001511 -0.143265 -0.989683 
0.326764 0.255550 0.079943 0.000000 1.000000 0.000000 
-0.081637 -0.224715 0.180054 0.000168 -0.984815 0.173610 
-0.278188 -0.241609 0.084265 0.000512 -0.984812 0.173622 
-0.055644 0.057597 -0.063632 -0.015843 -0.703425 -0.710593 
0.283831 0.184940 0.315073 0.066599 0.022722 0.997521 
0.030283 0.174386 0.345293 0.165933 0.027684 0.985748 
0.198078 0.138315 -0.126839 0.528604 -0.837397 0.139085 
-0.217632 0.255550 -0.026737 0.000000 1.000000 0.000000 
0.373676 0.255550 -0.127426 0.000000 1.000000 0.000000 
-0.203730 0.096504 0.436926 -0.981114 0.011752 0.193073 
-0.207000 0.148708 0.410951 -1.000000 0.000000 0.000000 
0.400797 0.169572 -0.369374 0.124973 -0.977095 0.172242 
0.094416 0.011589 0.345607 0.141841 0.087866 0.985982 
0.460300 0.255550 -0.109764 0.000000 1.000000 0.000000 
0.144304 0.255550 -0.074127 0.000000 1.000000 0.000000 
0.204515 0.003511 0.179276 0.002234 0.175874 0.984410 
0.354317 0.243206 0.310309 0.043294 0.002230 0.999060 
-0.371548 0.066514 0.111901 -0.169555 0.077926 0.982435 
0.047761 0.255550 -0.085030 0.000000 1.000000 0.000000 
-0.236766 -0.159921 0.224130 -0.858839 0.079823 0.505988 
0.415427 0.159210 -0.437694 0.091589 -0.981318 0.169195 
-0.166804 0.189819 -0.139943 -0.610356 -0.016313 -0.791959 
-0.015095 -0.111836 0.479169 0.537164 0.150103 0.830014 
0.115742 0.001656 0.235988 0.862087 -0.498843 0.089227 
-0.124279 -0.168300 0.500000 0.000000 0.169721 0.985492 
-0.052073 0.255550 0.172936 0.000000 1.000000 0.000000 
0.162889 0.255550 0.296975 0.000000 1.000000 0.000000 
-0.460300 -0.223591 -0.000262 0.000005 -0.166341 -0.986068 
-0.234269 -0.029172 -0.025746 -0.009977 -0.118948 -0.992850 
0.336477 0.177618 0.240740 0.298119 -0.939635 0.167964 
0.028048 -0.221421 -0.000608 0.001622 -0.164217 -0.986423 
-0.029649 0.255550 -0.129954 0.000000 1.000000 0.000000 
0.066103 -0.099444 0.349642 0.967833 -0.247727 0.043947 
-0.160261 0.255550 0.020460 0.000000 1.000000 0.000000 
0.235912 -0.018972 0.090681 0.731910 -0.669456 0.127029 
0.134773 -0.116553 0.200466 0.001855 0.175421 0.984492 
-0.376543 0.045037 -0.039437 -0.160039 -0.067143 -0.984824 
0.435669 0.255550 -0.418943 0.000000 1.000000 0.000000 
-0.460300 -0.092404 0.125220 -1.000000 0.000000 0.000000 
-0.109715 -0.199379 0.323740 -0.000013 -0.984836 0.173491 
0.028753 0.255550 0.116448 0.000000 1.000000 0.000000 
0.373776 0.255550 -0.055720 0.000000 1.000000 0.000000 
-0.377937 0.255550 -0.019354 0.000000 1.000000 0.000000 
-0.009824 -0.020311 -0.026964 0.004013 -0.175106 -0.984541 
0.460300 0.210425 -0.159216 1.000000 0.000000 0.000000 
0.294802 0.255550 0.085386 0.000000 1.000000 0.000000 
-0.220313 0.057878 0.231810 -0.941640 0.026057 0.335611 
0.401246 0.199084 -0.202721 0.101768 -0.979894 0.171616 
0.040021 0.255550 0.086046 0.000000 1.000000 0.000000 
-0.167635 0.255550 -0.140035 0.000000 1.000000 0.000000 
-0.016689 0.083840 0.458602 0.539776 0.058632 0.839765 
-0.207648 0.054388 0.288413 -0.998996 0.007526 0.044162 
0.267194 0.228810 -0.471328 -0.290746 -0.003761 -0.956793 
0.312731 0.255550 0.238967 0.000000 1.000000 0.000000 
0.260887 0.255550 -0.065495 0.000000 1.000000 0.000000 
0.147134 -0.083882 0.194655 -0.001370 0.173814 0.984778 
0.189175 0.078559 0.166021 -0.001523 0.172706 0.984972 
-0.148993 0.255550 -0.009942 0.000000 1.000000 0.000000 
0.270094 0.103920 0.161538 0.000806 0.173376 0.984855 
-0.133412 0.026051 0.473737 -0.001686 0.097349 0.995249 
-0.038862 0.116805 -0.230322 -0.000379 -0.985145 -0.171722 
0.460300 0.197946 0.243789 0.021772 -0.984223 0.175590 
0.460300 0.255550 -0.025687 0.000000 1.000000 0.000000 
0.029340 0.227346 -0.342085 -0.656184 -0.005039 -0.754584 
0.303345 0.255550 -0.452696 0.000000 1.000000 0.000000 
-0.460300 -0.129610 -0.014236 -1.000000 0.000000 0.000000 
-0.073800 0.255550 -0.051229 0.000000 1.000000 0.000000 
0.065836 0.227061 0.338399 0.146440 0.010725 0.989161 
-0.227184 -0.205895 -0.003138 0.003315 -0.151708 -0.988420 
-0.427877 -0.255550 0.005200 0.000000 -0.169306 -0.985564 
0.126808 0.127882 -0.293142 -0.000320 -0.985043 -0.172309 
-0.460300 0.115547 0.012986 -1.000000 0.000000 0.000000 
0.270999 0.241511 0.315085 0.073100 0.003267 0.997319 
-0.098076 0.062030 -0.068174 -0.005514 -0.709537 -0.704647 
0.103714 -0.125721 0.202052 0.001433 0.174258 0.984699 
-0.154941 0.227471 -0.150126 -0.626906 0.005156 -0.779078 
-0.113546 0.213432 -0.188904 -0.745191 0.002133 -0.666848 
0.387840 0.192143 -0.231415 0.135437 -0.975572 0.172961 
-0.150357 0.185376 0.463928 0.001354 0.032712 0.999464 
0.084456 -0.054713 0.272759 0.923262 -0.378389 0.066397 
0.460300 0.222948 0.223696 1.000000 0.000000 0.000000 
0.460300 0.255550 0.192271 1.000000 0.000000 0.000000 
0.396058 0.208125 -0.147542 0.145713 -0.972862 0.179743 
0.147676 -0.052400 0.189120 0.000586 0.171742 0.985142 
0.166009 -0.011634 0.022226 0.001505 -0.174383 -0.984677 
0.096491 0.043762 -0.047605 0.036532 -0.276178 -0.960412 
0.304006 0.255550 -0.343427 0.000000 1.000000 0.000000 
0.094408 0.255550 -0.222287 0.000000 1.000000 0.000000 
0.055100 -0.189660 0.378900 0.999772 -0.021045 0.003692 
-0.460300 0.200836 0.042530 -1.000000 0.000000 0.000000 
-0.150561 0.137353 -0.151655 -0.662641 -0.031720 -0.748265 
0.166926 0.140096 -0.362508 0.001446 -0.984689 -0.174314 
-0.359776 -0.117602 0.132353 -0.148576 0.133805 0.979807 
0.256195 0.137762 -0.349177 -0.000202 -0.985009 -0.172501 
0.026749 -0.206626 0.282644 -0.000495 -0.984827 0.173540 
-0.081637 -0.185298 0.403564 0.000350 -0.984688 0.174326 
-0.429545 -0.027973 0.117918 0.000494 0.103179 0.994663 
-0.432457 -0.236349 0.114090 -0.000067 -0.984760 0.173918 
-0.378422 0.144186 -0.044542 -0.159888 -0.037359 -0.986428 
0.095952 -0.022364 -0.026642 -0.010097 -0.168182 -0.985704 
0.151089 -0.197569 0.055011 0.988772 -0.148281 0.018521 
0.188132 -0.065905 0.191499 -0.000546 0.174333 0.984687 
-0.110476 0.255550 -0.073467 0.000000 1.000000 0.000000 
0.411384 0.255550 0.094017 0.000000 1.000000 0.000000 
0.148906 0.255550 -0.288533 0.000000 1.000000 0.000000 
0.090838 0.255550 0.191325 0.000000 1.000000 0.000000 
-0.301470 0.255550 -0.037467 0.000000 1.000000 0.000000 
-0.237740 0.115063 0.194192 -0.857329 0.024042 0.514208 
0.460300 0.129559 0.081758 1.000000 0.000000 0.000000 
0.117864 0.255550 -0.325972 0.000000 1.000000 0.000000 
0.079417 -0.225285 0.176822 -0.000186 -0.984885 0.173212 
-0.245801 0.255550 0.049268 0.000000 1.000000 0.000000 
-0.207000 -0.045282 0.385267 -1.000000 0.000000 0.000000 
0.444093 0.209001 0.308587 0.005097 0.012986 0.999903 
0.202707 0.255550 0.172276 0.000000 1.000000 0.000000 
-0.460300 0.157883 0.065562 -1.000000 0.000000 0.000000 
-0.435983 0.255550 0.089461 0.000000 1.000000 0.000000 
0.002600 0.255550 0.381223 1.000000 0.000000 0.000000 
-0.025479 -0.185308 0.403566 0.000083 -0.984808 0.173646 
-0.053558 0.255550 0.348800 0.000000 1.000000 0.000000 
-0.460300 -0.087731 -0.005303 -1.000000 0.000000 0.000000 
-0.403469 0.255550 0.089514 0.000000 1.000000 0.000000 
-0.187919 -0.215016 0.235064 -0.000230 -0.984803 0.173677 
0.418956 0.199963 0.267780 0.116135 -0.978220 0.172039 
-0.284057 -0.255550 0.005200 0.000000 -0.172300 -0.985044 
0.382223 0.171618 -0.342879 0.141298 -0.976009 0.165652 
-0.429264 0.004026 0.114794 0.001644 0.085284 0.996355 
-0.460300 -0.030282 0.002580 -1.000000 0.000000 0.000000 
0.213975 0.255550 0.141874 0.000000 1.000000 0.000000 
0.079459 0.255550 -0.020360 0.000000 1.000000 0.000000 
0.300078 0.027589 0.062852 0.533135 -0.832756 0.149280 
0.261746 0.158648 -0.209434 0.394447 -0.904213 0.163737 
0.188455 0.255550 -0.152852 0.000000 1.000000 0.000000 
-0.233642 0.067588 0.203918 -0.841057 0.041807 0.539328 
0.227083 0.255550 0.025710 0.000000 1.000000 0.000000 
-0.268122 0.219713 0.154791 -0.661381 0.003010 0.750044 
-0.109715 -0.182495 0.419531 -0.000085 -0.984874 0.173270 
0.021463 -0.099677 -0.017993 0.000097 -0.117924 -0.993023 
-0.207000 -0.168855 0.335151 -1.000000 0.000000 0.000000 
-0.245773 0.255550 0.179283 0.000000 1.000000 0.000000 
0.171812 -0.115285 0.101835 0.912178 -0.403996 0.068695 
0.045342 -0.068295 0.362063 0.162963 0.124126 0.978793 
-0.242509 -0.122639 0.210071 -0.797598 0.074633 0.598554 
0.133689 0.063582 -0.051112 -0.001438 -0.170332 -0.985386 
-0.012808 0.051651 0.458475 0.811370 0.083793 0.578496 
-0.203485 0.170671 0.434507 -0.835428 0.029898 0.548787 
0.460300 0.094888 0.003415 -0.001497 -0.172250 -0.985052 
0.460300 0.168164 -0.399070 1.000000 0.000000 0.000000 
0.001393 0.255550 -0.092516 0.000000 1.000000 0.000000 
0.002600 -0.151577 0.409876 1.000000 0.000000 0.000000 
0.056923 0.255550 0.040444 0.000000 1.000000 0.000000 
0.065843 0.156426 0.340198 0.153626 0.042728 0.987205 
0.432758 0.194734 -0.498794 -0.047830 -0.020856 -0.998638 
-0.460300 0.144160 0.028235 -1.000000 0.000000 0.000000 
-0.042646 0.255550 0.228297 0.000000 1.000000 0.000000 
-0.228899 0.255550 0.003665 0.000000 1.000000 0.000000 
-0.091856 -0.168300 0.500000 0.000000 -0.984814 0.173611 
0.172585 0.255550 0.091956 0.000000 1.000000 0.000000 
0.119457 -0.239655 0.095310 -0.000151 -0.984809 0.173643 
0.069726 0.255550 -0.356685 0.000000 1.000000 0.000000 
0.107289 -0.004572 0.283479 0.861926 -0.499389 0.087716 
-0.376572 0.012869 -0.035615 0.015940 -0.320040 -0.947270 
0.224337 0.127927 -0.293635 0.345478 -0.937531 0.040991 
0.206389 0.255550 0.000751 0.000000 1.000000 0.000000 
-0.092543 0.255550 0.080136 0.000000 1.000000 0.000000 
-0.351098 -0.075722 0.129166 -0.281020 0.113341 0.952986 
0.183027 -0.082614 0.150352 0.896755 -0.434018 0.086358 
0.254129 0.169802 0.317725 0.084730 0.033028 0.995856 
-0.320307 -0.237382 0.108211 -0.000042 -0.984828 0.173536 
0.081645 -0.110955 -0.016602 -0.000110 -0.128108 -0.991760 
0.002600 -0.188120 0.387600 -0.000114 -0.984881 0.173234 
-0.032410 0.255550 -0.001311 0.000000 1.000000 0.000000 
0.270248 0.128538 -0.062490 -0.000533 -0.169559 -0.985520 
0.044125 0.113450 0.345643 0.163573 0.054780 0.985009 
-0.086548 0.097704 0.468037 0.001041 0.067383 0.997727 
-0.205466 -0.031852 0.439709 -0.995178 -0.001599 0.098069 
-0.331160 -0.129061 0.142336 -0.319808 0.123665 0.939377 
-0.108341 -0.016178 -0.027620 -0.030510 -0.215499 -0.976027 
-0.117934 0.185349 0.463929 0.001186 0.033064 0.999453 
0.002600 0.066395 0.369896 1.000000 0.000000 0.000000 
0.223179 0.255550 -0.286939 0.000000 1.000000 0.000000 
0.387928 0.255550 0.197702 0.000000 1.000000 0.000000 
0.444091 0.164065 -0.498544 0.002417 -0.984551 -0.175079 
0.227219 0.113249 0.188467 0.555051 -0.820516 0.136645 
-0.376689 0.098408 0.109152 -0.078744 0.072720 0.994239 
0.215370 0.255550 -0.119784 0.000000 1.000000 0.000000 
-0.300268 -0.250682 0.032854 -0.000474 -0.984783 0.173789 
0.152534 0.109546 -0.101489 0.647072 -0.751196 0.130395 
-0.227210 -0.131847 0.237112 -0.904106 0.060357 0.423024 
0.181670 0.043026 -0.001581 0.680399 -0.720013 0.136526 
0.049448 0.255550 0.141407 0.000000 1.000000 0.000000 
-0.317793 -0.048619 -0.023761 -0.000697 -0.107060 -0.994252 
0.054405 0.255550 -0.116542 0.000000 1.000000 0.000000 
0.287404 0.011572 0.018106 -0.000908 -0.174246 -0.984702 
-0.121943 -0.250678 0.032853 0.000000 -0.984831 0.173516 
0.460300 0.134055 0.010750 1.000000 0.000000 0.000000 
0.002600 0.027518 0.387078 1.000000 0.000000 0.000000 
-0.320331 0.014604 -0.036300 -0.033666 -0.332897 -0.942362 
0.063206 -0.220414 0.204475 0.000126 -0.984713 0.174184 
0.460300 0.213432 -0.378415 1.000000 0.000000 0.000000 
0.116818 0.178544 0.332092 0.131872 0.028132 0.990867 
0.307799 0.255550 -0.272865 0.000000 1.000000 0.000000 
-0.166215 0.213540 0.461906 -0.086788 0.043985 0.995255 
-0.212391 0.088522 -0.104552 -0.012615 -0.900493 -0.434688 
-0.028585 0.166455 0.461297 0.194334 0.033362 0.980368 
-0.151834 -0.209239 0.267863 0.000122 -0.984786 0.173770 
-0.193206 0.255550 0.292002 0.000000 1.000000 0.000000 
0.039910 0.255550 -0.156041 0.000000 1.000000 0.000000 
0.315289 0.027843 0.015250 0.486247 -0.859217 0.159089 
0.378776 0.191313 -0.494377 -0.109201 -0.016347 -0.993885 
0.215559 0.140140 -0.362788 0.000868 -0.984685 -0.174339 
-0.261518 -0.113074 0.185642 -0.743193 0.089717 0.663035 
0.056417 -0.207844 0.042554 0.996968 -0.076141 0.016022 
-0.207000 0.158300 0.379979 -1.000000 0.000000 0.000000 
0.046994 -0.225293 0.176823 0.000414 -0.984979 0.172674 
0.273735 0.141618 0.186856 0.440171 -0.885631 0.148014 
0.207738 0.255550 0.269356 0.000000 1.000000 0.000000 
0.072075 -0.085946 0.299414 0.963415 -0.264910 0.040678 
0.432377 0.255550 0.130594 0.000000 1.000000 0.000000 
0.237411 0.136850 -0.265440 0.445297 -0.882761 0.149811 
-0.219796 -0.167181 0.259557 -0.918284 0.057763 0.391685 
-0.234483 0.219047 -0.096233 -0.459007 -0.012744 -0.888341 
-0.249816 -0.028287 0.188664 -0.752699 0.081174 0.653341 
0.002600 -0.027333 0.404299 1.000000 0.000000 0.000000 
0.122830 0.255550 -0.375669 0.000000 1.000000 0.000000 
-0.401767 0.077872 0.109141 -0.001981 0.060857 0.998145 
-0.207991 -0.237396 0.108214 -0.000530 -0.984922 0.173001 
0.206027 0.063872 -0.005370 0.629702 -0.766482 0.126416 
-0.032713 -0.150083 -0.011428 -0.000073 -0.138915 -0.990304 
0.270425 0.255550 0.231952 0.000000 1.000000 0.000000 
0.311436 0.255550 0.312373 0.059675 0.003614 0.998211 
0.150747 -0.183197 0.149483 0.992086 -0.121480 0.031749 
0.070143 0.255550 0.166366 0.000000 1.000000 0.000000 
-0.140535 -0.173114 0.472694 0.000141 -0.984837 0.173479 
0.167760 0.255550 -0.177811 0.000000 1.000000 0.000000 
0.331255 0.255550 -0.376550 0.000000 1.000000 0.000000 
0.014572 -0.225288 0.176822 -0.000210 -0.984776 0.173827 
0.119928 0.255550 0.072440 0.000000 1.000000 0.000000 
0.092034 0.118546 -0.240159 -0.002399 -0.984480 -0.175479 
0.345921 0.202952 -0.122831 0.236888 -0.956234 0.171755 
0.155049 -0.164201 0.123567 0.980401 -0.193105 0.039046 
-0.015397 0.255550 0.195174 0.000000 1.000000 0.000000 
0.432247 0.188435 0.196081 0.053152 -0.982971 0.175906 
0.022199 0.255550 0.174530 0.000000 1.000000 0.000000 
-0.000078 -0.020822 0.444189 0.980845 0.021154 0.193640 
0.114097 0.255550 0.302994 0.000000 1.000000 0.000000 
-0.389121 -0.091546 0.125532 -0.029424 0.125457 0.991663 
0.391500 0.075506 0.124462 0.226035 -0.960816 0.160436 
0.055100 -0.195283 0.346969 0.999772 -0.021045 0.003709 
-0.192223 0.255550 0.025903 0.000000 1.000000 0.000000 
-0.012525 0.255550 0.308617 0.000000 1.000000 0.000000 
0.008347 0.255550 -0.284966 0.000000 1.000000 0.000000 
-0.077878 0.034363 0.472950 0.000001 0.086164 0.996281 
0.232717 0.144240 -0.209971 0.450671 -0.878820 0.156750 
0.418182 0.255550 -0.362204 0.000000 1.000000 0.000000 
0.254522 0.164761 -0.155605 0.423011 -0.892160 0.158471 
0.071984 0.255550 0.080603 0.000000 1.000000 0.000000 
0.460300 0.227736 -0.041898 1.000000 0.000000 0.000000 
0.106531 0.111926 -0.202816 -0.001737 -0.984871 -0.173278 
0.460300 0.227471 -0.009475 1.000000 0.000000 0.000000 
0.130062 0.015542 0.191424 0.805222 -0.585529 0.093666 
0.070794 -0.235565 0.118545 0.000189 -0.984811 0.173631 
0.460300 0.201258 0.009881 1.000000 0.000000 0.000000 
0.212731 -0.039519 0.128155 0.807010 -0.583080 0.093553 
0.038119 0.104397 -0.159999 -0.001037 -0.984238 -0.176845 
0.052708 0.139494 -0.359086 -0.000261 -0.984640 -0.174599 
-0.237655 0.025032 0.200489 -0.813967 0.047085 0.579000 
0.117368 -0.083703 0.034943 0.004856 -0.173092 -0.984894 
-0.069886 0.110249 -0.193258 -0.000249 -0.985371 -0.170425 
0.352400 0.046421 0.026227 0.343923 -0.923907 0.167668 
-0.093352 0.255550 0.365104 0.000000 1.000000 0.000000 
-0.460300 0.083199 0.080592 -1.000000 0.000000 0.000000 
0.065484 0.107387 -0.177130 -0.000241 -0.984826 -0.173544 
-0.277731 -0.229205 0.154622 0.000090 -0.984731 0.174085 
-0.401585 -0.011994 0.116322 0.001019 0.095210 0.995457 
0.177308 0.130461 -0.091354 0.579948 -0.803523 0.134207 
0.018980 0.125689 -0.280715 -0.000296 -0.985034 -0.172361 
-0.143148 0.090050 0.468529 -0.000000 0.064190 0.997938 
0.012701 -0.199805 0.321356 -0.000009 -0.984727 0.174104 
0.347459 0.255550 0.104903 0.000000 1.000000 0.000000 
0.147508 -0.111808 0.039912 -0.000140 -0.172610 -0.984990 
-0.081637 -0.230349 0.148125 0.000238 -0.984799 0.173698 
0.032435 0.255550 -0.055077 0.000000 1.000000 0.000000 
0.289056 0.255550 -0.141500 0.000000 1.000000 0.000000 
-0.285872 -0.143998 -0.012244 -0.000387 -0.137509 -0.990500 
0.310560 0.255550 -0.401509 0.000000 1.000000 0.000000 
0.238240 0.255550 -0.246779 0.000000 1.000000 0.000000 
0.231606 0.145058 -0.390529 -0.001316 -0.984627 -0.174666 
-0.335901 0.255550 -0.028671 0.000000 1.000000 0.000000 
0.275674 0.049261 0.011456 -0.000204 -0.172275 -0.985049 
0.283311 0.255550 -0.368386 0.000000 1.000000 0.000000 
0.318312 0.059623 0.009648 -0.001897 -0.175371 -0.984501 
-0.111719 -0.117106 0.491540 -0.000001 0.154833 0.987941 
-0.207000 0.036297 0.349329 -1.000000 0.000000 0.000000 
0.033812 -0.185853 -0.006254 0.001916 -0.143596 -0.989635 
-0.025607 -0.177500 0.447814 -0.000022 -0.984820 0.173581 
0.261919 0.255550 0.133710 0.000000 1.000000 0.000000 
0.191964 0.145109 0.324390 0.101646 0.041911 0.993937 
0.000455 0.160058 0.427862 0.903925 -0.011938 0.427524 
-0.312167 0.125581 -0.060394 -0.296951 -0.050379 -0.953563 
-0.221500 -0.210260 0.262000 -0.000318 -0.984963 0.172766 
-0.337545 0.113710 0.117002 -0.268932 0.057264 0.961455 
-0.460300 0.199735 0.010126 -1.000000 0.000000 0.000000 
0.379216 0.212950 -0.105654 0.182615 -0.966482 0.180458 
-0.250110 -0.238787 0.100228 0.000247 -0.984742 0.174019 
0.160450 0.052851 0.184814 0.738241 -0.666317 0.104983 
0.355965 0.255550 0.203145 0.000000 1.000000 0.000000 
0.251348 0.255550 -0.362943 0.000000 1.000000 0.000000 
-0.207000 0.013177 0.326549 -1.000000 0.000000 0.000000 
0.347026 0.211244 -0.077113 -0.002241 -0.171300 -0.985216 
-0.082084 0.255550 0.334703 0.000000 1.000000 0.000000 
-0.007239 -0.084705 -0.019791 -0.002180 -0.111293 -0.993785 
-0.141314 -0.015861 0.478057 -0.000507 0.107254 0.994232 
0.120960 0.255550 0.271645 0.000000 1.000000 0.000000 
-0.207000 -0.130705 0.377420 -1.000000 0.000000 0.000000 
-0.205951 -0.107414 0.447238 -0.997203 0.021413 0.071602 
0.101524 0.241511 -0.395296 -0.525741 -0.007394 -0.850612 
-0.228436 0.255550 0.206647 -0.889010 0.019131 0.457488 
-0.177162 0.255550 0.066063 0.000000 1.000000 0.000000 
-0.151834 -0.214859 0.235931 0.000058 -0.984670 0.174426 
-0.460300 0.046545 0.073375 -1.000000 0.000000 0.000000 
-0.179913 -0.223308 0.188037 -0.000208 -0.984724 0.174124 
-0.460300 -0.066585 0.027284 -1.000000 0.000000 0.000000 
-0.091408 -0.088033 -0.019361 -0.001768 -0.120183 -0.992750 
0.336375 0.173543 -0.276076 0.258420 -0.951644 0.166109 
0.063589 0.255550 0.224448 0.000000 1.000000 0.000000 
-0.107047 -0.048341 -0.023772 -0.001044 -0.102653 -0.994717 
-0.173615 0.255550 0.234848 0.000000 1.000000 0.000000 
0.157796 -0.139025 0.204411 0.000171 0.172485 0.985012 
0.270085 0.186432 -0.072758 0.377992 -0.911909 0.159828 
0.460300 0.207338 0.062684 1.000000 0.000000 0.000000 
0.131561 -0.033507 0.026059 0.000669 -0.172558 -0.984999 
-0.039885 0.255550 0.099653 0.000000 1.000000 0.000000 
-0.427898 -0.203269 0.141342 0.000404 0.162109 0.986773 
-0.303530 -0.034453 0.143769 -0.513241 0.088475 0.853672 
-0.236753 0.032238 -0.044717 -0.026317 -0.502807 -0.863998 
-0.357445 0.151005 0.109897 -0.181448 0.051266 0.982063 
-0.279784 -0.195923 0.181680 -0.653768 0.135945 0.744383 
-0.460300 0.068943 0.109712 -0.001594 0.065431 0.997856 
0.066738 -0.123078 0.201581 -0.001393 0.173577 0.984819 
-0.123755 -0.206427 0.283829 -0.000443 -0.984853 0.173390 
-0.367097 0.255550 0.012956 0.000000 1.000000 0.000000 
0.418090 0.073937 0.007110 0.000843 -0.172989 -0.984923 
-0.460300 -0.016845 -0.026900 -0.009326 -0.103565 -0.994579 
0.328494 0.255550 -0.247906 0.000000 1.000000 0.000000 
0.446833 0.255550 -0.067134 0.000000 1.000000 0.000000 
-0.035942 -0.069720 -0.021481 -0.002543 -0.111929 -0.993713 
0.195121 0.255550 0.031152 0.000000 1.000000 0.000000 
0.112347 -0.011222 0.196140 0.868535 -0.486966 0.092258 
-0.407003 -0.216763 -0.001414 -0.001157 -0.153913 -0.988084 
0.051178 0.255550 -0.186442 0.000000 1.000000 0.000000 
-0.009632 -0.070761 0.468150 0.601373 0.050387 0.797378 
-0.051962 0.255550 0.415023 0.000000 1.000000 0.000000 
-0.191096 0.178251 -0.121860 -0.553579 -0.018386 -0.832594 
-0.181852 -0.202763 0.304547 -0.000204 -0.984813 0.173620 
-0.340536 -0.241869 0.002805 -0.000073 -0.164806 -0.986326 
0.178331 0.087418 0.275413 0.709920 -0.695015 0.113873 
0.067992 -0.107370 0.262484 0.963904 -0.260024 0.057235 
0.395915 0.083617 0.165139 0.206877 -0.962932 0.173103 
-0.095676 -0.217684 0.219968 -0.000044 -0.984819 0.173583 
0.231503 0.107667 -0.058860 -0.001440 -0.174310 -0.984690 
0.460300 0.255550 -0.285148 0.000000 1.000000 0.000000 
-0.274026 0.111299 -0.074027 -0.401836 -0.045276 -0.914592 
-0.216455 0.166646 -0.105331 -0.524302 -0.024323 -0.851185 
-0.072880 0.255550 -0.094110 0.000000 1.000000 0.000000 
0.421430 0.183621 -0.072245 -0.000832 -0.173284 -0.984872 
-0.261765 0.172004 0.161760 -0.739475 0.012086 0.673075 
-0.195108 0.040204 -0.049588 0.025827 -0.555035 -0.831426 
0.060393 -0.139910 0.289358 0.986886 -0.159016 0.027732 
0.175207 0.255550 -0.391493 0.000000 1.000000 0.000000 
-0.194489 -0.176504 0.453479 0.000275 -0.984797 0.173707 
-0.284585 -0.176070 -0.007667 -0.000044 -0.148343 -0.988936 
-0.423168 0.126273 -0.038100 -0.059904 -0.042084 -0.997317 
0.023400 -0.147873 -0.011774 -0.001943 -0.143040 -0.989715 
-0.211827 -0.204907 0.292453 0.000973 -0.984764 0.173896 
0.167681 -0.135943 0.044123 0.935521 -0.349155 0.053764 
-0.235792 0.255550 -0.095685 -0.451211 -0.004894 -0.892404 
-0.371421 -0.023416 0.119475 -0.100849 0.093577 0.990491 
-0.053558 -0.188122 0.387600 0.000030 -0.984743 0.174013 
-0.000209 0.191350 -0.315034 -0.700948 -0.014794 -0.713059 
-0.359556 -0.058336 -0.022721 -0.002577 -0.107094 -0.994246 
-0.142746 0.255550 -0.160806 -0.678782 -0.009380 -0.734280 
0.311928 0.255550 -0.483313 -0.222162 -0.011349 -0.974944 
-0.033099 0.108071 -0.180973 -0.002903 -0.984915 -0.173016 
0.057334 -0.207702 -0.002827 0.990168 -0.134777 0.037451 
-0.013183 -0.038403 0.467908 0.560553 0.089199 0.823301 
0.199184 0.144991 -0.390349 -0.002895 -0.984546 -0.175100 
0.262616 0.255550 -0.393345 0.000000 1.000000 0.000000 
0.404048 0.188377 0.211994 0.162599 -0.971204 0.174140 
-0.376464 -0.245828 0.060316 -0.000428 -0.984804 0.173670 
0.002600 -0.060719 0.428775 1.000000 0.000000 0.000000 
0.002600 0.086318 0.406910 1.000000 0.000000 0.000000 
-0.316505 -0.080821 -0.020215 0.001085 -0.113709 -0.993514 
0.337217 0.045387 0.054953 0.366064 -0.915870 0.164861 
0.252511 0.002935 0.123602 0.679725 -0.721891 0.129800 
-0.249594 0.255550 -0.021294 0.000000 1.000000 0.000000 
0.226051 0.255550 -0.173496 0.000000 1.000000 0.000000 
0.367849 0.181064 -0.274342 0.182597 -0.968328 0.170294 
0.246515 0.185955 -0.464091 -0.331153 -0.008438 -0.943539 
0.333053 0.154061 -0.067016 0.000268 -0.174026 -0.984741 
-0.393917 -0.235576 0.118520 -0.000183 -0.984871 0.173287 
-0.009588 0.019457 0.457682 0.627039 0.089670 0.773810 
-0.396573 -0.043855 0.119615 -0.048754 0.108178 0.992935 
-0.340054 -0.194291 -0.004910 0.000588 -0.152880 -0.988245 
0.084919 0.182371 0.336454 0.144940 0.033666 0.988868 
-0.029551 -0.216154 0.228654 -0.000879 -0.984858 0.173358 
0.411786 0.206373 0.309043 0.020594 0.013606 0.999695 
0.011850 -0.244028 0.070531 -0.000088 -0.984935 0.172924 
0.292738 0.255550 -0.313025 0.000000 1.000000 0.000000 
-0.087940 0.255550 -0.134270 0.000000 1.000000 0.000000 
0.400814 0.255550 -0.402636 0.000000 1.000000 0.000000 
-0.117528 -0.137362 -0.013198 0.002308 -0.129267 -0.991607 
0.056149 -0.176126 0.294198 0.998493 -0.053914 0.010274 
0.111533 0.255550 0.216284 0.000000 1.000000 0.000000 
0.460300 0.183909 0.040272 1.000000 0.000000 0.000000 
0.357558 0.085203 0.005158 0.001554 -0.172585 -0.984993 
-0.225106 0.255550 0.074227 0.000000 1.000000 0.000000 
-0.379266 -0.230567 0.146959 -0.000862 -0.984730 0.174089 
0.150633 0.224465 -0.423671 -0.464229 0.001272 -0.885714 
0.070453 -0.136051 0.029915 0.953042 -0.298135 0.053168 
-0.264929 0.255550 -0.081470 0.000000 1.000000 0.000000 
0.283509 0.112076 -0.013841 0.416852 -0.895858 0.153859 
-0.063341 0.255550 0.203338 0.000000 1.000000 0.000000 
-0.432327 0.255550 0.054862 0.000000 1.000000 0.000000 
0.095628 -0.230156 0.149169 0.000375 -0.984808 0.173645 
-0.044487 0.255550 0.314059 0.000000 1.000000 0.000000 
0.133207 0.117766 -0.235890 -0.000143 -0.985199 -0.171417 
0.272043 0.255550 -0.337984 0.000000 1.000000 0.000000 
-0.395453 -0.250689 0.032778 0.000211 -0.984880 0.173236 
0.421537 0.241511 0.308464 0.012635 0.009891 0.999871 
-0.085476 0.241511 0.462980 0.000000 0.004301 0.999991 
0.174426 0.255550 0.006193 0.000000 1.000000 0.000000 
-0.207000 0.255550 0.408597 0.000000 1.000000 0.000000 
0.063253 -0.172500 -0.008251 -0.000051 -0.141991 -0.989868 
-0.297003 -0.216638 -0.001371 0.000222 -0.161038 -0.986948 
0.123609 0.255550 -0.099086 0.000000 1.000000 0.000000 
-0.017350 0.255550 0.038849 0.000000 1.000000 0.000000 
0.460300 0.098474 0.052249 1.000000 0.000000 0.000000 
-0.126729 0.134919 -0.173414 -0.688143 -0.035914 -0.724685 
-0.139079 0.042220 -0.051270 0.011570 -0.536714 -0.843685 
-0.028276 0.069731 -0.076079 -0.023723 -0.767541 -0.640561 
-0.051153 0.255550 0.130055 0.000000 1.000000 0.000000 
-0.460300 0.241720 0.047123 -1.000000 0.000000 0.000000 
0.056452 -0.186073 0.212684 -0.001564 0.173732 0.984792 
-0.460300 0.018703 0.056828 -1.000000 0.000000 0.000000 
0.319752 0.185796 -0.179655 0.267380 -0.948006 0.172603 
0.337871 0.186090 -0.206555 0.235863 -0.954601 0.181948 
0.109048 -0.047636 0.188289 0.001176 0.171755 0.985139 
0.379421 0.255550 0.099460 0.000000 1.000000 0.000000 
0.301993 0.161192 0.221250 0.395298 -0.903931 0.163242 
0.368005 0.187648 -0.072958 -0.000877 -0.173127 -0.984899 
-0.097533 0.166059 -0.205754 -0.750933 -0.016553 -0.660171 
0.460300 0.255550 -0.150389 0.000000 1.000000 0.000000 
-0.204412 0.255550 0.099186 0.000000 1.000000 0.000000 
0.176267 0.255550 -0.079569 0.000000 1.000000 0.000000 
-0.245876 -0.189904 0.215832 -0.799134 0.101896 0.592454 
-0.090118 -0.120189 -0.015420 -0.002501 -0.128854 -0.991660 
-0.245697 0.193390 0.180068 -0.782954 0.023407 0.621639 
-0.165692 0.012691 -0.035345 0.000947 -0.413370 -0.910563 
0.123528 0.084251 -0.096738 0.683143 -0.720242 0.120698 
-0.401963 -0.051944 -0.023393 -0.002054 -0.104705 -0.994501 
0.460300 0.173785 -0.367139 1.000000 0.000000 0.000000 
0.174358 0.185819 0.324846 0.104637 0.028560 0.994100 
-0.460300 0.046216 0.039672 -1.000000 0.000000 0.000000 
0.430345 0.255550 -0.269717 0.000000 1.000000 0.000000 
-0.207000 -0.029455 0.321831 -0.999950 0.002208 0.009728 
0.151890 0.255550 0.066997 0.000000 1.000000 0.000000 
0.111417 0.103436 -0.154799 0.000236 -0.983536 -0.180712 
-0.460300 0.020450 0.113400 -1.000000 0.000000 0.000000 
-0.121744 0.255550 -0.043065 0.000000 1.000000 0.000000 
-0.085744 -0.097757 0.488629 0.000453 0.141844 0.989889 
-0.128298 0.255550 0.015017 0.000000 1.000000 0.000000 
-0.207544 0.128638 0.285942 -0.999298 0.005974 0.036972 
0.126758 0.029993 0.299775 0.835700 -0.540978 0.094597 
-0.007164 0.116720 -0.230026 -0.001114 -0.984775 -0.173829 
-0.314573 -0.129053 -0.014281 0.000721 -0.129710 -0.991552 
0.012811 0.084549 -0.097448 0.025181 -0.893633 -0.448092 
0.002600 0.106680 0.381710 1.000000 0.000000 0.000000 
0.002600 0.008823 0.360702 0.170440 0.094806 0.980797 
0.114333 -0.119235 0.041187 0.001820 -0.172712 -0.984971 
0.222481 0.255550 0.240116 0.000000 1.000000 0.000000 
-0.432221 -0.076319 0.123199 0.000900 0.113603 0.993526 
0.093214 0.138777 -0.354985 -0.000228 -0.984892 -0.173168 
0.147300 -0.236839 0.111296 0.000000 -0.984814 0.173611 
0.460300 0.161893 0.079365 1.000000 0.000000 0.000000 
0.068392 0.227702 -0.372662 -0.577559 -0.004429 -0.816337 
0.014502 0.255550 -0.208680 0.000000 1.000000 0.000000 
-0.040499 -0.025375 0.478235 0.048970 0.088766 0.994848 
0.272155 0.255550 -0.095897 0.000000 1.000000 0.000000 
-0.460300 0.088034 0.030141 -1.000000 0.000000 0.000000 
-0.081636 -0.235979 0.116195 0.000127 -0.984757 0.173939 
-0.272337 -0.002501 0.162867 -0.624389 0.079732 0.777033 
-0.320307 -0.245834 0.060317 -0.000022 -0.984760 0.173918 
0.341068 0.060366 0.130672 0.404454 -0.901342 0.154921 
-0.110408 0.029612 -0.043210 0.029851 -0.472291 -0.880937 
-0.131171 0.255550 -0.098426 0.000000 1.000000 0.000000 
0.110433 0.132729 -0.320703 0.001311 -0.985113 -0.171903 
-0.165934 0.053728 0.469937 -0.257209 0.131263 0.957399 
-0.109715 -0.233164 0.132160 0.000304 -0.984863 0.173334 
-0.199183 0.255550 0.439781 0.000000 1.000000 0.000000 
-0.110828 0.255550 0.408828 0.000000 1.000000 0.000000 
-0.207000 0.223064 0.409003 -0.993486 0.015173 0.112943 
0.056134 -0.184950 0.245378 0.998615 -0.051647 0.010050 
0.082367 0.157451 -0.381197 -0.554450 -0.021930 -0.831928 
0.030846 0.133196 -0.323301 0.000942 -0.984510 -0.175328 
-0.107603 0.255550 0.039976 0.000000 1.000000 0.000000 
0.266574 0.150996 -0.264848 0.400193 -0.902976 0.156459 
0.166000 -0.120774 0.157418 0.949442 -0.307163 0.064884 
-0.432328 -0.247096 0.053098 -0.000831 -0.984836 0.173487 
0.246445 -0.020230 0.023733 0.001223 -0.173266 -0.984874 
-0.166556 -0.036142 0.478936 -0.234235 0.114555 0.965407 
-0.211418 0.034705 0.262973 -0.985481 0.010166 0.169484 
0.064186 -0.115445 0.310291 0.973438 -0.226960 0.030138 
0.123368 0.162029 -0.407321 -0.503838 -0.026567 -0.863389 
-0.102779 0.255550 0.309744 0.000000 1.000000 0.000000 
-0.424320 0.041488 0.111712 -0.003187 0.076662 0.997052 
-0.387604 0.162029 0.105566 -0.041834 0.035989 0.998476 
0.460300 0.255550 -0.244748 0.000000 1.000000 0.000000 
-0.206790 0.255550 0.181195 0.000000 1.000000 0.000000 
0.312242 0.187741 -0.072961 0.001168 -0.174420 -0.984671 
0.363390 0.162909 -0.491609 -0.000152 -0.984739 -0.174038 
-0.333261 0.255550 0.067415 0.000000 1.000000 0.000000 
0.002600 0.150789 0.364986 1.000000 0.000000 0.000000 
0.460300 0.186690 0.179928 0.021864 -0.984119 0.176159 
0.460300 0.255550 0.224694 1.000000 0.000000 0.000000 
0.018876 -0.035279 -0.025120 -0.014112 -0.127930 -0.991683 
-0.432340 -0.001476 -0.029164 -0.075043 -0.081908 -0.993811 
0.460300 0.149681 0.111041 1.000000 0.000000 0.000000 
-0.170425 -0.219676 -0.000870 0.000222 -0.161714 -0.986838 
-0.336435 -0.228930 0.156167 -0.000148 -0.984828 0.173533 
-0.151674 -0.200736 0.316029 0.000003 -0.984833 0.173505 
0.191980 0.118182 -0.238214 0.373442 -0.926139 0.052987 
0.372644 0.255550 -0.326632 0.000000 1.000000 0.000000 
0.214885 0.196242 0.320444 0.093059 0.027102 0.995292 
-0.250110 -0.233157 0.132159 0.000680 -0.984832 0.173510 
-0.194087 0.227470 -0.120673 -0.544707 -0.003582 -0.838619 
0.062041 0.121461 -0.256881 -0.000021 -0.984848 -0.173417 
0.137638 0.255550 -0.258131 0.000000 1.000000 0.000000 
-0.432221 -0.065227 -0.021957 0.000818 -0.109588 -0.993977 
0.240674 0.173005 -0.070359 0.434069 -0.887958 0.152034 
0.230815 -0.015689 0.140163 0.750018 -0.652074 0.110783 
0.047496 0.255550 -0.014917 0.000000 1.000000 0.000000 
0.460300 0.168910 -0.000142 1.000000 0.000000 0.000000 
-0.231793 0.114338 -0.094690 -0.458448 -0.054050 -0.887076 
-0.156468 0.255550 0.091022 0.000000 1.000000 0.000000 
0.204548 0.255550 0.086513 0.000000 1.000000 0.000000 
-0.265712 -0.250995 0.031053 0.000001 -0.984831 0.173517 
-0.206300 -0.000357 0.432008 -0.980946 0.019415 0.193306 
0.083230 -0.097198 0.037280 0.936649 -0.345000 0.060533 
-0.211686 0.138228 0.255279 -0.984314 0.014957 0.175791 
0.170645 -0.103637 0.183903 0.914866 -0.396159 0.077959 
-0.138607 0.145414 0.465410 -0.000182 0.049144 0.998792 
0.270468 0.176536 -0.129948 0.384204 -0.910695 0.151731 
-0.406954 0.109344 0.107319 -0.016183 0.055368 0.998335 
0.002600 -0.149236 0.446557 0.984763 0.041235 0.168945 
-0.177662 -0.197186 0.336173 0.000260 -0.984814 0.173616 
0.005934 -0.235466 0.119077 -0.000277 -0.984819 0.173585 
-0.460300 0.143229 -0.009294 -1.000000 0.000000 0.000000 
-0.101858 0.255550 0.266862 0.000000 1.000000 0.000000 
-0.431160 0.191688 0.104210 0.003077 0.023238 0.999725 
-0.256129 -0.219728 0.208349 -0.769614 0.132046 0.624707 
-0.258281 0.140827 0.166758 -0.754185 0.037316 0.655601 
0.300475 0.215787 -0.480334 -0.249283 -0.010768 -0.968371 
0.173518 -0.117082 0.068969 0.907034 -0.415632 0.067372 
0.085086 0.111769 0.339362 0.144858 0.046794 0.988345 
-0.188116 -0.250811 0.032098 0.000195 -0.984810 0.173637 
-0.392738 0.194019 0.104394 -0.026939 0.030050 0.999185 
-0.040917 0.255550 -0.099553 0.000000 1.000000 0.000000 
-0.207000 0.076412 0.312191 -1.000000 0.000000 0.000000 
0.056452 -0.157768 0.373256 0.157092 0.157648 0.974920 
-0.222031 -0.250058 0.036370 0.000001 -0.984831 0.173516 
0.292849 0.255550 -0.070938 0.000000 1.000000 0.000000 
-0.083457 0.155991 0.464970 0.000827 0.043962 0.999033 
-0.207000 -0.074553 0.435932 -0.982641 0.036989 0.181792 
0.460300 0.217169 0.190986 1.000000 0.000000 0.000000 
-0.207991 -0.243008 0.076280 -0.000650 -0.984846 0.173427 
0.217911 0.163974 0.321074 0.092638 0.029942 0.995250 
-0.034004 -0.117974 -0.015739 -0.001728 -0.124592 -0.992207 
-0.024603 -0.208357 0.272835 -0.000239 -0.984736 0.174053 
0.460300 0.149847 -0.033364 1.000000 0.000000 0.000000 
-0.151834 -0.181078 0.427512 0.000424 -0.984803 0.173675 
-0.237810 0.058258 -0.064404 0.004585 -0.674901 -0.737894 
0.347681 0.165322 0.150696 -0.001265 0.177042 0.984202 
-0.417374 -0.241607 0.084264 0.000288 -0.984833 0.173507 
-0.011439 -0.228940 0.156107 -0.000073 -0.984715 0.174171 
-0.267420 0.255550 0.155181 0.000000 1.000000 0.000000 
0.432236 0.170132 -0.382956 0.069700 -0.982150 0.174707 
0.088997 0.255550 0.277088 0.000000 1.000000 0.000000 
-0.134229 0.191104 -0.167802 -0.697091 -0.013983 -0.716846 
0.092567 0.255550 -0.136524 0.000000 1.000000 0.000000 
0.129722 0.143348 -0.380885 0.001087 -0.985050 -0.172267 
-0.194006 -0.115463 0.475714 -0.831179 0.084835 0.549495 
0.301888 0.184693 -0.152617 0.340359 -0.927181 0.156496 
0.311977 0.176818 0.286103 0.368479 -0.916886 0.153438 
0.460300 0.241511 0.063498 1.000000 0.000000 0.000000 
-0.079641 -0.031115 -0.025547 0.001077 -0.102371 -0.994746 
0.203404 0.255550 -0.354779 0.000000 1.000000 0.000000 
-0.236494 -0.215252 0.233724 -0.865687 0.092390 0.491986 
-0.361681 -0.235129 0.121018 0.000101 -0.984833 0.173504 
-0.207000 0.119043 0.316909 -1.000000 0.000000 0.000000 
0.004371 0.255550 0.262981 0.000000 1.000000 0.000000 
-0.031422 -0.182147 -0.006792 0.000509 -0.147274 -0.989096 
0.092679 0.255550 0.105563 0.000000 1.000000 0.000000 
0.016926 0.012129 -0.035115 0.022299 -0.414897 -0.909595 
0.431058 0.255550 -0.167444 0.000000 1.000000 0.000000 
-0.081637 -0.179679 0.435496 0.000561 -0.984796 0.173715 
0.279033 0.161252 -0.236733 0.386469 -0.907235 0.166032 
-0.150883 0.255550 0.298440 0.000000 1.000000 0.000000 
0.179723 0.227576 -0.437976 -0.408486 -0.013515 -0.912664 
0.176477 0.026705 0.175177 -0.000667 0.173642 0.984809 
0.062446 0.255550 -0.216844 0.000000 1.000000 0.000000 
-0.210181 0.000879 0.272125 -0.989571 0.014388 0.143325 
0.165752 0.123022 0.328281 0.114529 0.045848 0.992361 
-0.080354 0.255550 0.006853 0.000000 1.000000 0.000000 
0.341499 0.165084 -0.331355 0.250280 -0.954047 0.164785 
-0.212469 0.198666 -0.108525 -0.505079 -0.020754 -0.862823 
0.427934 0.088565 0.164272 -0.000064 0.174805 0.984603 
-0.191862 -0.035565 -0.025100 -0.001114 -0.103601 -0.994618 
0.198323 0.099616 0.239482 0.627919 -0.767750 0.127583 
0.209407 0.255550 -0.451005 -0.364259 0.001480 -0.931297 
-0.220665 0.147892 0.225698 -0.940530 0.009911 0.339565 
-0.215603 -0.036106 0.253702 -0.968013 0.022199 0.249915 
-0.417970 0.053880 -0.034569 -0.101746 -0.066406 -0.992592 
-0.235289 -0.006418 0.207297 -0.832630 0.045824 0.551930 
-0.065182 0.255550 0.289100 0.000000 1.000000 0.000000 
-0.146234 -0.122420 -0.015154 -0.002218 -0.130144 -0.991493 
-0.357813 0.091972 -0.046192 -0.233032 -0.048106 -0.971278 
-0.362903 0.182894 0.107784 -0.231307 0.015923 0.972751 
-0.207000 -0.067747 0.361889 -1.000000 0.000000 0.000000 
0.331209 0.255550 0.270210 0.000000 1.000000 0.000000 
-0.242008 0.255550 0.119829 0.000000 1.000000 0.000000 
0.024960 0.255550 0.045886 0.000000 1.000000 0.000000 
0.332738 0.194572 -0.151267 0.266787 -0.950204 0.161048 
0.156778 0.255550 -0.231883 0.000000 1.000000 0.000000 
0.117006 0.107950 0.335153 0.135823 0.057940 0.989037 
0.191652 0.127893 -0.293525 -0.001788 -0.984379 -0.176056 
0.237319 0.255550 -0.203897 0.000000 1.000000 0.000000 
-0.178528 0.255550 -0.097946 0.000000 1.000000 0.000000 
-0.303172 0.255550 0.002071 0.000000 1.000000 0.000000 
-0.460300 0.255550 -0.007077 0.000000 1.000000 0.000000 
0.040978 0.255550 0.285162 0.000000 1.000000 0.000000 
-0.052869 -0.124820 0.492749 -0.000829 0.152642 0.988281 
-0.360840 -0.026104 -0.026055 0.000288 -0.098750 -0.995112 
-0.125314 0.255550 0.370547 0.000000 1.000000 0.000000 
0.241099 0.163353 -0.126126 0.436847 -0.884600 0.163239 
0.208229 0.255550 -0.085012 0.000000 1.000000 0.000000 
0.240192 0.255550 -0.090455 0.000000 1.000000 0.000000 
0.213565 0.150419 -0.421035 0.000836 -0.984801 -0.173685 
0.029901 0.255550 0.315634 0.000000 1.000000 0.000000 
-0.343273 -0.114091 -0.016188 -0.000658 -0.125572 -0.992084 
-0.244793 -0.091251 0.202777 -0.815264 0.069589 0.574892 
0.000043 0.069826 0.435077 0.983298 0.015039 0.181379 
-0.081781 0.200934 0.463531 0.000000 0.018915 0.999821 
-0.348386 -0.243021 0.076283 0.000104 -0.984861 0.173344 
0.196962 0.255550 -0.054610 0.000000 1.000000 0.000000 
-0.460300 -0.108955 0.020613 -1.000000 0.000000 0.000000 
-0.238648 0.255550 -0.062491 0.000000 1.000000 0.000000 
0.119235 -0.234017 0.127310 0.000124 -0.984798 0.173703 
-0.363704 0.255550 -0.049495 0.000000 1.000000 0.000000 
-0.242823 0.154997 -0.090491 -0.464874 -0.035381 -0.884670 
-0.053558 -0.193758 0.355671 0.000044 -0.984807 0.173651 
-0.330682 -0.023530 0.129862 -0.320498 0.093770 0.942596 
-0.403249 -0.019744 -0.026954 0.018666 -0.192886 -0.981044 
-0.053558 -0.233159 0.132159 -0.000166 -0.984846 0.173433 
0.205357 0.255550 -0.198455 0.000000 1.000000 0.000000 
-0.460300 -0.192042 0.055877 -1.000000 0.000000 0.000000 
-0.319076 -0.016450 -0.027544 0.000226 -0.154778 -0.987949 
0.233749 0.255550 0.209714 0.000000 1.000000 0.000000 
-0.207000 -0.036268 0.354123 -1.000000 0.000000 0.000000 
0.012190 0.255550 -0.123092 0.000000 1.000000 0.000000 
-0.007949 -0.143936 0.476567 0.799199 0.073823 0.596515 
0.163158 0.255550 0.036595 0.000000 1.000000 0.000000 
0.093245 0.186880 -0.389199 -0.542006 -0.014554 -0.840249 
-0.228471 -0.173862 -0.007983 0.002339 -0.143644 -0.989627 
-0.123755 -0.212052 0.251898 -0.000260 -0.984818 0.173592 
-0.189331 -0.057404 0.471466 -0.760843 0.107962 0.639892 
-0.267413 -0.049972 0.172213 -0.715899 0.070829 0.694602 
0.234376 -0.027151 0.053015 0.738945 -0.664948 0.108647 
-0.207756 0.255550 -0.111960 -0.545888 -0.007160 -0.837828 
0.241921 0.255550 -0.418304 0.000000 1.000000 0.000000 
0.417498 0.255550 -0.053339 0.000000 1.000000 0.000000 
-0.232979 -0.061398 -0.022382 -0.000876 -0.108908 -0.994051 
0.314710 0.193989 -0.124325 0.298677 -0.941762 0.154519 
0.020170 -0.067499 -0.021746 -0.002441 -0.107095 -0.994246 
-0.313285 -0.161148 -0.009873 -0.000940 -0.141404 -0.989952 
0.104055 0.208329 0.333107 0.134974 0.013021 0.990764 
-0.376464 -0.240197 0.092246 -0.000298 -0.984806 0.173658 
0.414687 0.205624 -0.173963 0.073947 -0.981381 0.177266 
-0.164523 -0.018502 -0.027247 -0.019889 -0.195911 -0.980420 
0.054796 -0.230666 0.146339 0.000045 -0.984788 0.173758 
-0.207000 -0.099226 0.369654 -1.000000 0.000000 0.000000 
0.016355 -0.193200 0.358844 -0.000985 -0.984684 0.174345 
0.100265 0.255550 0.246686 0.000000 1.000000 0.000000 
-0.124505 0.255550 0.085579 0.000000 1.000000 0.000000 
0.316738 0.099051 0.002647 0.000102 -0.172874 -0.984944 
0.344698 0.255550 0.233546 0.000000 1.000000 0.000000 
0.238254 0.084250 -0.024594 0.528185 -0.835559 0.151199 
-0.062707 -0.103006 -0.017574 -0.000984 -0.122099 -0.992518 
0.166109 0.227472 0.325025 0.113479 0.012956 0.993456 
0.350964 0.194418 -0.178081 0.218771 -0.960989 0.169233 
-0.460300 0.001897 0.086810 -1.000000 0.000000 0.000000 
-0.053105 0.255550 -0.026270 0.000000 1.000000 0.000000 
-0.382907 0.112147 -0.042401 -0.147716 -0.046306 -0.987945 
0.251460 0.255550 -0.120856 0.000000 1.000000 0.000000 
-0.033219 0.255550 0.283657 0.000000 1.000000 0.000000 
-0.287318 -0.071397 0.158292 -0.602840 0.104507 0.790988 
0.070511 -0.245280 0.063400 -0.000149 -0.984945 0.172867 
0.349300 0.255550 0.019140 0.000000 1.000000 0.000000 
-0.053558 -0.182486 0.419529 -0.000061 -0.984810 0.173637 
-0.006193 0.255550 -0.233639 0.000000 1.000000 0.000000 
0.050083 -0.115497 -0.015989 0.001038 -0.127796 -0.991800 
0.030274 0.141922 0.346505 0.160607 0.045439 0.985972 
-0.094383 0.255550 0.165899 0.000000 1.000000 0.000000 
0.249470 0.147970 -0.237471 0.447753 -0.881096 0.152274 
-0.207000 -0.132923 0.334586 -1.000000 0.000000 0.000000 
0.395558 0.163598 -0.495586 -0.099426 -0.022306 -0.994795 
0.306495 0.036743 0.093290 0.508179 -0.846865 0.156759 
-0.163161 -0.050565 -0.023536 0.000305 -0.106390 -0.994325 
-0.025479 0.255550 0.397434 0.000000 1.000000 0.000000 
0.104846 0.068999 -0.075106 0.015801 -0.796205 -0.604821 
0.400116 0.255550 0.124419 0.000000 1.000000 0.000000 
0.230654 0.255550 -0.387902 0.000000 1.000000 0.000000 
-0.238686 0.187021 -0.093422 -0.453076 -0.019740 -0.891253 
-0.382067 0.130118 0.107067 -0.048226 0.042317 0.997940 
-0.193258 -0.003769 -0.030070 -0.015261 -0.187004 -0.982241 
-0.268224 0.255550 -0.049220 0.000000 1.000000 0.000000 
-0.109715 -0.188122 0.387600 0.000120 -0.984818 0.173592 
-0.207432 0.022769 0.295583 -0.999526 0.006817 0.030025 
-0.188085 0.192178 0.453098 -0.731344 0.048083 0.680312 
0.272438 0.255550 -0.444475 0.000000 1.000000 0.000000 
0.071175 -0.141370 -0.012611 -0.001183 -0.131688 -0.991291 
-0.151834 -0.220502 0.204003 -0.000009 -0.984805 0.173666 
-0.019190 0.255550 0.124612 0.000000 1.000000 0.000000 
0.102658 -0.007008 0.319150 0.891736 -0.444058 0.087292 
0.058931 -0.139800 0.342645 0.993060 -0.115792 0.020617 
0.280239 0.145141 -0.390803 -0.000828 -0.984547 -0.175116 
0.055100 -0.209529 0.266196 0.999772 -0.021037 0.003711 
0.247778 0.255550 0.050669 0.000000 1.000000 0.000000 
0.240693 0.117233 0.159223 0.000334 0.171752 0.985140 
0.363217 0.255550 -0.381992 0.000000 1.000000 0.000000 
-0.011439 -0.240197 0.092246 -0.000086 -0.984764 0.173894 
-0.059033 0.098709 -0.132060 -0.027462 -0.951142 -0.307531 
