0.460300 0.105291 0.015849 1.000000 0.000000 0.000000 
-0.207000 0.212239 0.396936 -1.000000 0.000000 0.000000 
0.368963 0.255550 -0.155106 0.000000 1.000000 0.000000 
-0.162515 -0.066671 -0.021812 -0.000413 -0.113555 -0.993532 
0.122800 0.255550 0.185882 0.000000 1.000000 0.000000 
-0.207000 0.241511 0.401841 -0.999579 0.010497 0.027037 
0.324883 0.255550 0.146447 0.000000 1.000000 0.000000 
0.115511 0.083761 -0.054621 0.708053 -0.694079 0.130060 
0.460300 0.078919 0.006208 1.000000 0.000000 0.000000 
0.329804 0.039761 0.041678 0.442068 -0.882230 0.162007 
0.460300 0.144968 0.022375 1.000000 0.000000 0.000000 
0.338032 0.255550 0.049542 0.000000 1.000000 0.000000 
0.366532 0.061249 0.009394 -0.003969 -0.174487 -0.984652 
0.315868 0.255550 -0.047906 0.000000 1.000000 0.000000 
-0.036869 0.138921 -0.275634 -0.743881 -0.027106 -0.667762 
-0.078291 0.255550 0.405264 0.000000 1.000000 0.000000 
0.206391 0.241511 0.320581 0.100354 0.005976 0.994934 
0.159913 0.067154 0.269213 0.724560 -0.678185 0.122792 
0.184344 0.097559 0.299663 0.682995 -0.718088 0.133668 
0.035024 0.130251 -0.306741 0.000942 -0.984510 -0.175328 
-0.302640 0.255550 0.129068 0.000000 1.000000 0.000000 
0.460300 0.200925 0.260601 1.000000 0.000000 0.000000 
0.072696 0.125648 -0.280456 -0.001413 -0.984486 -0.175460 
0.051801 0.105882 -0.168566 -0.000241 -0.984826 -0.173544 
0.082530 0.255550 -0.366053 0.000000 1.000000 0.000000 
-0.028617 0.255550 0.069251 0.000000 1.000000 0.000000 
-0.460300 -0.135916 0.053970 -1.000000 0.000000 0.000000 
0.229937 -0.029913 0.064646 0.748862 -0.653339 0.111146 
-0.355692 -0.154782 -0.010744 0.000900 -0.138513 -0.990360 
0.181466 0.104462 -0.058319 -0.003697 -0.175653 -0.984445 
-0.297647 -0.200640 -0.003914 0.000206 -0.156981 -0.987602 
0.245384 0.134145 0.237438 0.511984 -0.846631 0.145221 
0.434105 0.191389 0.212022 0.053152 -0.982971 0.175906 
0.255841 0.147511 -0.404496 0.000558 -0.984724 -0.174125 
0.403687 0.255550 -0.289193 0.000000 1.000000 0.000000 
0.117820 0.255550 0.330787 0.000000 1.000000 0.000000 
0.412082 0.255550 -0.433038 0.000000 1.000000 0.000000 
0.345618 0.255550 0.190665 0.000000 1.000000 0.000000 
0.210991 0.255550 -0.213656 0.000000 1.000000 0.000000 
0.196962 0.255550 -0.054610 0.000000 1.000000 0.000000 
-0.195081 0.054133 -0.060313 -0.030112 -0.655713 -0.754410 
0.111477 -0.155661 0.207346 -0.001760 0.173003 0.984920 
0.004265 0.241511 -0.319795 -0.673733 -0.003130 -0.738968 
-0.214480 -0.067601 0.261317 -0.950345 0.047303 0.307581 
0.240081 0.255550 -0.332541 0.000000 1.000000 0.000000 
-0.095676 -0.234558 0.124175 -0.000228 -0.984941 0.172890 
-0.222477 -0.000529 0.231367 -0.938350 0.020821 0.345060 
-0.170608 0.255550 0.007980 0.000000 1.000000 0.000000 
0.151536 0.111055 -0.087965 0.647143 -0.750585 0.133520 
-0.460300 -0.009910 0.041579 -1.000000 0.000000 0.000000 
-0.376396 0.061206 -0.040598 -0.197084 -0.064575 -0.978258 
-0.223057 0.052922 -0.059446 0.026688 -0.639881 -0.768010 
0.370418 0.176688 -0.301959 0.199570 -0.966708 0.160147 
-0.098288 -0.107914 0.490142 0.001900 0.152536 0.988296 
0.348025 0.169255 -0.317121 0.250280 -0.954047 0.164785 
0.414517 0.124276 -0.001794 0.002728 -0.175368 -0.984499 
0.418231 0.164927 -0.406731 0.105934 -0.977909 0.180201 
-0.460300 -0.228566 0.014243 -1.000000 0.000000 0.000000 
-0.196016 0.255550 -0.044659 0.000000 1.000000 0.000000 
-0.017851 -0.215530 0.232126 -0.000108 -0.984682 0.174360 
0.097392 0.255550 0.133243 0.000000 1.000000 0.000000 
0.116135 0.255550 0.001878 0.000000 1.000000 0.000000 
0.460300 0.255550 -0.181357 1.000000 0.000000 0.000000 
0.014290 -0.176771 0.383516 0.170928 0.165139 0.971346 
-0.051684 0.162688 -0.259418 -0.756411 -0.020477 -0.653776 
-0.210103 -0.248559 0.044880 0.000098 -0.984805 0.173666 
-0.460300 0.131505 0.069216 -1.000000 0.000000 0.000000 
-0.174433 0.227499 0.460061 -0.187524 0.019363 0.982069 
-0.432512 0.176483 0.104631 0.001616 0.029584 0.999561 
-0.030270 0.094130 -0.117828 -0.028033 -0.913501 -0.405870 
-0.242354 0.161606 0.185529 -0.839329 0.010683 0.543518 
0.170498 0.041400 0.172560 0.000801 0.175642 0.984454 
0.242984 0.255550 0.140318 0.000000 1.000000 0.000000 
0.133957 0.255550 -0.086606 0.000000 1.000000 0.000000 
0.208095 0.127921 -0.293558 0.002108 -0.985135 -0.171768 
-0.114226 0.097817 -0.128226 0.000264 -0.973191 -0.229998 
0.193225 -0.009815 0.181627 -0.001817 0.170592 0.985340 
0.460300 0.255550 0.085422 1.000000 0.000000 0.000000 
-0.316210 0.255550 0.064817 0.000000 1.000000 0.000000 
0.155461 0.255550 -0.346615 0.000000 1.000000 0.000000 
0.001344 -0.161644 0.456904 0.995984 0.057679 0.068473 
0.369994 0.255550 0.044099 0.000000 1.000000 0.000000 
-0.032299 0.255550 0.240776 0.000000 1.000000 0.000000 
0.362528 0.067734 0.126649 0.295337 -0.940566 0.167665 
0.067129 -0.206369 0.216286 0.000574 0.172350 0.985036 
-0.149127 -0.057753 0.483112 0.000200 0.131208 0.991355 
0.103924 0.145859 -0.395046 -0.002009 -0.984346 -0.176235 
0.104915 -0.169488 0.050042 0.003753 -0.174285 -0.984688 
-0.344561 -0.081932 -0.020114 0.000095 -0.111546 -0.993759 
0.247120 0.151667 -0.209742 0.450671 -0.878820 0.156750 
0.002600 0.053928 0.405454 1.000000 0.000000 0.000000 
-0.433109 -0.115052 -0.016081 -0.001083 -0.122515 -0.992466 
0.276709 0.023701 0.129421 0.608999 -0.782588 0.129136 
0.401978 0.255550 0.168331 0.000000 1.000000 0.000000 
0.231797 0.255550 0.053390 0.000000 1.000000 0.000000 
-0.151834 -0.209239 0.267863 0.000122 -0.984786 0.173770 
0.122270 0.227473 -0.407976 -0.505934 0.004701 -0.862559 
0.360151 0.194148 -0.191488 0.218771 -0.960989 0.169233 
-0.403563 0.241512 0.103565 -0.030673 -0.003078 0.999525 
0.233638 0.255550 -0.032372 0.000000 1.000000 0.000000 
0.101757 0.255550 0.332976 0.143945 0.001173 0.989585 
-0.205507 -0.122951 0.451846 -0.969448 0.043898 0.241337 
0.012042 -0.228940 0.156107 -0.000244 -0.984861 0.173348 
-0.302798 -0.072219 -0.021185 0.001085 -0.113709 -0.993514 
0.016423 -0.052132 0.364936 0.173060 0.116193 0.978033 
-0.347497 0.227431 0.110549 -0.226115 0.002631 0.974097 
0.402309 0.182117 -0.299849 0.101137 -0.979958 0.171621 
-0.159295 -0.147059 -0.011890 -0.000702 -0.143386 -0.989667 
-0.057819 0.255550 -0.053950 0.000000 1.000000 0.000000 
0.356123 0.174924 0.192121 0.254956 -0.951858 0.170189 
0.305459 0.163931 -0.277465 0.306363 -0.938345 0.160159 
0.417551 0.183956 -0.298328 0.073815 -0.980395 0.182696 
0.142691 0.137646 -0.348539 -0.003074 -0.984867 -0.173282 
0.167283 0.255550 0.283519 0.000000 1.000000 0.000000 
0.431907 0.255550 0.276249 0.000000 1.000000 0.000000 
0.248169 0.134972 -0.306919 0.220640 -0.975134 0.020756 
-0.116919 0.255550 0.226702 0.000000 1.000000 0.000000 
0.071900 0.034550 -0.046000 0.025822 -0.492045 -0.870187 
0.311573 0.083773 0.165142 0.001774 0.174025 0.984740 
-0.432221 -0.011842 0.116302 -0.002435 0.099292 0.995055 
-0.207000 0.092221 0.308602 -1.000000 0.000000 0.000000 
-0.089781 0.255550 -0.048507 0.000000 1.000000 0.000000 
-0.193057 0.064401 0.456381 -0.571467 0.084496 0.816263 
0.288389 0.215655 -0.477222 -0.249283 -0.010768 -0.968371 
0.183301 0.135257 -0.334946 0.000637 -0.984789 -0.173751 
0.057399 -0.152420 0.345537 0.993060 -0.115792 0.020617 
0.317337 0.255550 0.024583 0.000000 1.000000 0.000000 
-0.238852 0.040844 0.197146 -0.852596 0.028983 0.521767 
0.191170 0.119116 -0.210059 0.374177 -0.926870 0.030076 
0.460300 0.218563 0.085458 1.000000 0.000000 0.000000 
0.205846 0.121923 -0.061325 0.000529 -0.173356 -0.984859 
-0.460300 0.190036 0.076226 -1.000000 0.000000 0.000000 
0.351029 0.255550 -0.308709 0.000000 1.000000 0.000000 
0.075420 0.240042 0.336840 0.146440 0.010725 0.989161 
-0.433716 -0.121986 0.129083 -0.000357 0.137120 0.990554 
-0.022239 -0.061110 -0.022393 -0.000039 -0.106145 -0.994351 
-0.225051 -0.174935 0.248381 -0.918284 0.057763 0.391685 
0.040021 0.255550 0.086046 0.000000 1.000000 0.000000 
-0.217830 0.100440 0.235970 -0.951661 0.011081 0.306951 
-0.169576 0.255550 0.207186 0.000000 1.000000 0.000000 
-0.355617 0.107979 -0.047512 -0.233032 -0.048106 -0.971278 
0.054300 -0.245280 0.063400 0.999667 -0.025395 0.004495 
-0.067597 -0.214865 0.235932 0.000686 -0.984813 0.173619 
-0.068217 -0.175644 0.458386 0.000353 -0.984809 0.173642 
0.012663 0.161885 -0.326353 -0.658706 -0.023375 -0.752037 
-0.081637 -0.202199 0.307775 -0.000434 -0.984787 0.173767 
0.446261 0.255550 0.167954 0.000000 1.000000 0.000000 
0.199468 -0.072531 0.047226 0.817608 -0.563191 0.119722 
0.318552 0.255550 -0.456117 0.000000 1.000000 0.000000 
-0.120823 0.255550 -0.085946 0.000000 1.000000 0.000000 
0.403624 0.241511 -0.497561 -0.083472 0.007250 -0.996484 
0.169619 0.094820 -0.056554 -0.003697 -0.175653 -0.984445 
0.137949 -0.010964 -0.028359 0.779652 -0.615548 0.115079 
0.235840 0.071791 0.167238 0.001504 0.173622 0.984811 
-0.055302 0.227471 -0.256422 -0.761396 -0.006476 -0.648255 
0.167913 0.160408 0.326445 0.113012 0.036081 0.992938 
-0.081637 -0.193753 0.355670 -0.000487 -0.984775 0.173835 
0.154763 0.255550 0.180440 0.000000 1.000000 0.000000 
-0.460300 -0.118386 0.114459 -1.000000 0.000000 0.000000 
0.381501 0.146848 -0.005730 0.198940 -0.963917 0.176879 
-0.210829 -0.072154 0.276442 -0.987020 0.008328 0.160381 
-0.185546 -0.088872 0.478296 -0.669923 0.139047 0.729294 
-0.246610 0.120006 0.181554 -0.776993 0.040380 0.628213 
0.134300 0.039680 0.294105 0.811735 -0.575552 0.099133 
0.214137 0.098928 0.162467 0.618617 -0.773629 0.137153 
0.333136 0.255550 -0.460420 0.000000 1.000000 0.000000 
-0.187263 -0.143894 0.485586 -0.728061 0.003867 0.685501 
0.002600 -0.093088 0.428062 0.999947 -0.000411 0.010288 
0.217220 0.112259 -0.059617 0.000529 -0.173356 -0.984859 
0.190332 0.100505 0.284889 0.682995 -0.718088 0.133668 
0.286184 0.255550 -0.254943 0.000000 1.000000 0.000000 
-0.460300 0.028817 -0.030769 -0.018341 -0.078780 -0.996723 
-0.217983 -0.084985 -0.019708 0.001407 -0.117439 -0.993079 
0.239630 0.147486 -0.404405 0.000558 -0.984724 -0.174125 
-0.010725 -0.178479 0.442259 -0.000304 -0.984826 0.173546 
-0.366458 0.034650 0.115031 -0.136898 0.061049 0.988702 
0.062557 0.255550 0.025243 0.000000 1.000000 0.000000 
-0.256166 0.227478 0.166847 -0.711482 0.030068 0.702061 
0.201906 0.241511 -0.447931 -0.387538 0.005267 -0.921839 
0.225291 -0.019307 0.154965 0.749941 -0.650365 0.120889 
0.100800 -0.245280 0.063400 0.000000 -0.171856 -0.985122 
0.016428 0.231213 0.346442 0.166030 0.011757 0.986051 
0.110433 0.132729 -0.320703 0.001311 -0.985113 -0.171903 
0.107517 0.255550 -0.338451 0.000000 1.000000 0.000000 
0.261288 0.165354 -0.170326 0.423011 -0.892160 0.158471 
-0.311226 0.255550 0.080243 0.000000 1.000000 0.000000 
0.092679 0.255550 0.105563 0.000000 1.000000 0.000000 
0.067690 -0.095919 0.334313 0.967966 -0.247324 0.043283 
-0.296465 0.097776 0.137266 -0.505234 0.038850 0.862107 
0.460300 0.227471 -0.418943 1.000000 0.000000 0.000000 
-0.278530 0.023692 -0.040205 -0.020122 -0.454023 -0.890763 
-0.087791 0.102000 -0.146668 -0.006704 -0.975349 -0.220564 
0.285315 0.166267 -0.222647 0.373955 -0.912128 0.167871 
0.277425 0.155788 0.255987 0.444643 -0.883615 0.146684 
-0.185420 -0.196242 -0.004670 0.001427 -0.153836 -0.988095 
-0.178815 -0.046540 0.477195 -0.234235 0.114555 0.965407 
-0.054835 0.255550 0.301580 0.000000 1.000000 0.000000 
0.003457 0.255550 0.305895 0.000000 1.000000 0.000000 
-0.432473 0.223137 -0.040240 -0.075949 -0.022885 -0.996849 
0.054664 -0.235443 0.038431 0.999368 -0.034315 0.009255 
-0.001096 -0.078085 0.456475 0.980750 0.026109 0.193516 
0.263648 0.255550 -0.194139 0.000000 1.000000 0.000000 
0.446263 0.194717 -0.246984 0.039079 -0.983650 0.175801 
-0.222031 -0.230347 0.148124 -0.000390 -0.984763 0.173900 
-0.432471 -0.092408 0.125191 0.001335 0.122839 0.992426 
-0.120753 -0.056951 -0.022856 -0.000050 -0.105387 -0.994431 
0.215031 0.126801 -0.251783 0.366048 -0.928298 0.065356 
0.446261 0.255550 0.078513 0.000000 1.000000 0.000000 
0.069000 0.255550 -0.274926 0.000000 1.000000 0.000000 
-0.216087 -0.179966 0.272174 -0.952118 0.069271 0.297779 
-0.411411 -0.156664 0.133990 -0.004367 0.151053 0.988516 
-0.267845 -0.255550 0.005200 0.000035 -0.172230 -0.985057 
0.303345 0.255550 -0.452696 0.000000 1.000000 0.000000 
0.083823 -0.189351 0.213294 0.000229 0.173823 0.984777 
-0.460300 0.199735 0.010126 -1.000000 0.000000 0.000000 
-0.236369 0.095148 -0.091156 -0.480695 -0.046211 -0.875669 
0.083644 -0.235919 0.116523 0.000189 -0.984811 0.173631 
0.175457 0.112905 -0.182387 0.574102 -0.804334 0.153148 
-0.200435 0.229018 0.438073 -0.941561 -0.006188 0.336786 
0.165074 0.019658 -0.038252 0.719393 -0.685569 0.111665 
0.338423 0.183032 -0.072096 -0.002307 -0.177928 -0.984041 
0.460300 0.149681 0.111041 1.000000 0.000000 0.000000 
-0.448432 -0.232778 0.134312 0.000000 -0.984843 0.173450 
-0.189232 0.255550 -0.074258 0.000000 1.000000 0.000000 
-0.335135 0.255550 0.007513 0.000000 1.000000 0.000000 
-0.460300 0.241511 0.031275 -1.000000 0.000000 0.000000 
0.239712 0.133051 -0.293218 0.441304 -0.881754 0.166616 
0.333266 0.149477 -0.415513 0.164782 -0.979193 0.118441 
0.094576 -0.041840 0.214064 0.912029 -0.406510 0.054350 
0.121008 0.007281 0.221439 0.847862 -0.519497 0.106081 
-0.194751 -0.009634 0.460770 -0.622402 0.074467 0.779147 
-0.376689 0.098408 0.109152 -0.078744 0.072720 0.994239 
0.135652 0.105947 -0.168756 0.001984 -0.984949 -0.172833 
0.324402 0.164461 0.189474 0.338085 -0.926409 0.165725 
-0.189603 0.255550 0.234952 0.000000 1.000000 0.000000 
0.197308 0.048275 0.171385 0.001061 0.176516 0.984297 
-0.460300 0.159017 0.052061 -1.000000 0.000000 0.000000 
0.046981 0.125633 -0.280209 0.003630 -0.984403 -0.175888 
0.250250 0.063788 0.168627 -0.001468 0.171230 0.985230 
-0.116540 -0.085388 0.486853 -0.000359 0.139760 0.990185 
-0.207000 0.074463 0.413429 -0.998225 0.013232 0.058060 
-0.050553 -0.253166 0.018731 0.000000 -0.984831 0.173515 
0.460300 0.199069 0.169511 1.000000 0.000000 0.000000 
-0.138155 -0.250114 0.036056 0.000000 -0.984831 0.173515 
-0.153765 0.074872 -0.082587 -0.006440 -0.834676 -0.550704 
0.112809 -0.219387 0.058816 -0.001306 -0.173186 -0.984888 
-0.275149 0.255550 0.113296 0.000000 1.000000 0.000000 
-0.460300 0.255550 0.023894 0.000000 1.000000 0.000000 
0.432221 0.255550 0.208482 0.000000 1.000000 0.000000 
0.255668 0.170188 -0.128080 0.436847 -0.884600 0.163239 
-0.460300 0.045115 0.007268 -1.000000 0.000000 0.000000 
-0.109817 0.199377 0.463565 -0.001873 0.022233 0.999751 
0.171657 0.069291 0.210431 0.713722 -0.688406 0.129219 
0.379177 0.172875 0.149353 0.218029 -0.959499 0.178394 
-0.316923 0.227479 0.121847 -0.459214 -0.013092 0.888229 
-0.135958 0.175104 -0.165847 -0.696200 -0.012439 -0.717740 
-0.025479 -0.241606 0.084264 0.000142 -0.984740 0.174033 
-0.207000 0.062025 0.358649 -1.000000 0.000000 0.000000 
0.310795 0.116115 -0.060361 0.364904 -0.919324 0.147270 
-0.184635 0.000873 0.467847 -0.622402 0.074467 0.779147 
-0.207410 -0.081196 0.307371 -0.999642 0.001373 0.026712 
0.128323 0.255550 -0.071405 0.000000 1.000000 0.000000 
-0.095676 -0.206420 0.283828 0.000077 -0.984769 0.173868 
0.123368 0.162029 -0.407321 -0.503838 -0.026567 -0.863389 
0.066110 0.085862 0.343826 0.152970 0.063532 0.986187 
-0.251072 0.038470 -0.049066 0.004681 -0.565014 -0.825068 
0.402962 0.205726 -0.497154 -0.072816 -0.009667 -0.997299 
0.304926 0.255550 -0.386308 0.000000 1.000000 0.000000 
0.165919 0.255550 -0.092049 0.000000 1.000000 0.000000 
-0.419366 0.151457 0.105415 0.001010 0.033590 0.999435 
0.460300 0.171013 0.092768 1.000000 0.000000 0.000000 
0.151089 -0.197569 0.055011 0.988772 -0.148281 0.018521 
0.091758 0.255550 0.148444 0.000000 1.000000 0.000000 
0.254476 0.130525 0.185385 0.505999 -0.849075 0.151778 
-0.006892 0.215287 -0.308900 -0.708654 -0.008883 -0.705501 
0.342634 0.255550 -0.164865 0.000000 1.000000 0.000000 
-0.372587 -0.127516 0.131717 -0.089875 0.139045 0.986199 
0.294488 0.255550 -0.044397 0.000000 1.000000 0.000000 
-0.390504 -0.247236 0.052334 -0.000242 -0.984715 0.174173 
-0.448433 0.243683 0.103500 0.000000 0.000000 1.000000 
0.460300 0.218934 0.296499 1.000000 0.000000 0.000000 
-0.028276 0.069731 -0.076079 -0.023723 -0.767541 -0.640561 
-0.053558 -0.241606 0.084264 0.000255 -0.984879 0.173245 
-0.162134 0.255550 0.223402 0.000000 1.000000 0.000000 
-0.207000 -0.139719 0.408564 -1.000000 0.000000 0.000000 
-0.460300 0.214041 0.017750 -1.000000 0.000000 0.000000 
0.117411 -0.217970 0.218300 0.000000 0.169308 0.985563 
0.354140 0.255550 -0.435298 0.000000 1.000000 0.000000 
0.123811 -0.166019 0.209188 -0.001760 0.173003 0.984920 
-0.187919 -0.215016 0.235064 -0.000230 -0.984803 0.173677 
0.230842 0.137458 -0.064109 0.002798 -0.175115 -0.984544 
-0.016541 0.255550 -0.246119 0.000000 1.000000 0.000000 
0.430106 0.255550 -0.197199 0.000000 1.000000 0.000000 
0.310783 0.255550 0.082665 0.000000 1.000000 0.000000 
0.316305 0.255550 -0.174623 0.000000 1.000000 0.000000 
0.415427 0.159210 -0.437694 0.091589 -0.981318 0.169195 
-0.165873 -0.247245 0.052336 -0.000518 -0.984742 0.174019 
0.077618 0.255550 0.065403 0.000000 1.000000 0.000000 
-0.321320 -0.227923 0.161940 0.000641 -0.984909 0.173071 
0.033392 0.126692 -0.286391 0.000842 -0.985107 -0.171941 
-0.358115 0.255550 0.079842 0.000000 1.000000 0.000000 
0.430742 0.126268 -0.002104 -0.001997 -0.174683 -0.984623 
-0.327787 -0.160576 0.148139 -0.399749 0.127233 0.907751 
0.399196 0.142082 -0.050669 0.152107 -0.971574 0.181404 
-0.160579 -0.114930 -0.016102 -0.000096 -0.125705 -0.992068 
0.231998 0.126066 0.241721 0.569005 -0.807854 0.153636 
0.186798 -0.095432 0.036946 0.887269 -0.452678 0.088518 
-0.012766 0.255550 0.065769 0.000000 1.000000 0.000000 
0.088351 -0.036293 0.323498 0.924130 -0.376154 0.067026 
-0.177489 0.255550 0.332082 0.000000 1.000000 0.000000 
-0.343195 0.097862 -0.049991 -0.233032 -0.048106 -0.971278 
-0.460300 0.047505 0.057192 -1.000000 0.000000 0.000000 
-0.207000 -0.002571 0.389191 -1.000000 0.000000 0.000000 
-0.218601 -0.078756 0.250299 -0.928452 0.040874 0.369195 
-0.205574 -0.135643 0.453483 -0.993386 0.019840 0.113098 
0.309393 0.154707 0.166914 0.355062 -0.919038 0.171170 
0.080298 0.044270 -0.052532 0.772719 -0.623917 0.116763 
0.460300 0.226954 -0.355069 1.000000 0.000000 0.000000 
0.377581 0.255550 0.185222 0.000000 1.000000 0.000000 
0.288263 0.147535 -0.404684 -0.000943 -0.985048 -0.172275 
0.159861 0.105957 -0.154751 0.152527 -0.984555 -0.085942 
-0.033219 0.255550 0.283657 0.000000 1.000000 0.000000 
-0.207991 -0.243008 0.076280 -0.000650 -0.984846 0.173427 
0.084456 -0.054713 0.272759 0.923262 -0.378389 0.066397 
0.004266 0.255550 0.020927 0.000000 1.000000 0.000000 
0.068772 -0.112906 0.214082 0.960301 -0.276671 0.035703 
0.255347 0.008062 0.138660 0.640680 -0.756782 0.129652 
0.142742 0.102891 -0.091233 0.647072 -0.751196 0.130395 
-0.042278 0.255550 0.423606 0.000000 1.000000 0.000000 
0.233340 -0.024361 0.075610 0.740862 -0.660411 0.122396 
0.407513 0.255550 -0.149463 0.000000 1.000000 0.000000 
0.020170 -0.067499 -0.021746 -0.002441 -0.107095 -0.994246 
0.421270 0.080855 0.124927 0.111453 -0.978598 0.172985 
0.445431 0.255550 -0.050483 0.000000 1.000000 0.000000 
0.103108 -0.036817 -0.024993 0.001491 -0.115878 -0.993262 
0.397056 0.153165 -0.066910 0.002980 -0.170793 -0.985303 
0.002600 -0.082152 0.385255 1.000000 0.000000 0.000000 
-0.379637 0.255550 -0.046501 0.000000 1.000000 0.000000 
0.254921 0.134466 0.206435 0.488558 -0.862188 0.133951 
-0.446261 0.168350 0.104869 -0.000247 0.032283 0.999479 
-0.010116 0.125442 0.450557 0.604536 0.051909 0.794884 
0.227223 0.108353 0.160810 0.002363 0.173682 0.984799 
-0.229631 -0.217797 0.219259 0.000333 -0.984764 0.173895 
0.000827 0.143895 0.426675 0.989953 0.012460 0.140847 
0.164777 0.028781 0.015031 0.728890 -0.672686 0.127329 
0.134773 -0.116553 0.200466 0.001855 0.175421 0.984492 
0.319568 0.121597 -0.047879 0.328312 -0.932735 0.149052 
-0.079434 0.255550 -0.036028 0.000000 1.000000 0.000000 
0.432239 0.201089 -0.206955 0.046298 -0.984142 0.171233 
0.376701 0.255550 -0.340525 0.000000 1.000000 0.000000 
0.302962 0.167969 -0.249790 0.307585 -0.937680 0.161703 
-0.001842 -0.245543 0.061989 -0.000052 -0.984715 0.174175 
-0.460300 0.132468 0.082042 -1.000000 0.000000 0.000000 
0.033356 0.255550 -0.097958 0.000000 1.000000 0.000000 
0.321370 0.173015 0.244399 0.341067 -0.925861 0.162647 
-0.446748 -0.184949 -0.006373 -0.001625 -0.152672 -0.988276 
0.362936 0.129022 -0.002600 -0.001253 -0.174960 -0.984575 
0.103198 -0.086234 0.195102 0.000619 0.172629 0.984987 
-0.207000 0.028986 0.322960 -1.000000 0.000000 0.000000 
0.060782 0.255550 -0.131229 0.000000 1.000000 0.000000 
0.015612 0.040699 -0.050260 0.011711 -0.610547 -0.791893 
0.269291 0.171177 -0.157486 0.374079 -0.914552 0.153817 
0.378501 0.255550 0.142341 0.000000 1.000000 0.000000 
-0.007666 0.093156 0.448874 0.865049 -0.015597 0.501445 
-0.207000 -0.043064 0.428101 -0.990638 0.032864 0.132502 
-0.128895 0.098589 -0.131911 0.022997 -0.956227 -0.291722 
0.406448 0.255550 -0.417837 0.000000 1.000000 0.000000 
-0.042873 -0.098989 0.488383 0.017994 0.118844 0.992750 
0.389769 0.255550 0.111939 0.000000 1.000000 0.000000 
0.174426 0.255550 0.006193 0.000000 1.000000 0.000000 
-0.081781 0.200934 0.463531 0.000000 0.018915 0.999821 
0.359968 0.071511 0.007565 0.003132 -0.173497 -0.984830 
0.430345 0.255550 -0.269717 0.000000 1.000000 0.000000 
-0.013183 -0.038403 0.467908 0.560553 0.089199 0.823301 
0.098201 0.255550 -0.151725 0.000000 1.000000 0.000000 
0.460300 0.197389 0.037906 1.000000 0.000000 0.000000 
-0.197633 0.085440 -0.098594 -0.012615 -0.900493 -0.434688 
0.074978 -0.033046 -0.025333 0.000834 -0.102464 -0.994736 
0.151132 -0.175440 0.180607 0.984203 -0.175508 0.023268 
0.342520 0.196349 -0.074513 -0.002307 -0.177928 -0.984041 
0.142434 0.055255 0.321394 0.769786 -0.626443 0.122473 
0.147065 0.255550 -0.202770 0.000000 1.000000 0.000000 
0.179182 0.119446 -0.060908 0.002367 -0.171092 -0.985252 
-0.446261 -0.116523 0.128317 0.000253 0.129065 0.991636 
0.213664 -0.055555 0.029927 -0.001541 -0.171787 -0.985133 
-0.060628 0.241511 -0.250311 -0.762237 -0.005942 -0.647271 
-0.079641 -0.031115 -0.025547 0.001077 -0.102371 -0.994746 
0.071311 -0.227716 0.162994 -0.000186 -0.984885 0.173212 
0.404048 0.188377 0.211994 0.162599 -0.971204 0.174140 
0.232177 0.156776 0.320079 0.088601 0.034871 0.995457 
0.246461 0.127864 0.197912 0.543401 -0.826440 0.147350 
0.383732 0.184155 -0.273354 0.136968 -0.975306 0.173257 
-0.359776 -0.117602 0.132353 -0.148576 0.133805 0.979807 
0.313303 0.181275 -0.193824 0.319520 -0.931824 0.172077 
0.460300 0.215233 0.207830 1.000000 0.000000 0.000000 
0.051413 -0.161539 -0.009822 -0.000051 -0.141991 -0.989868 
0.121843 -0.009242 -0.029005 -0.012111 -0.261960 -0.965003 
0.016428 0.166318 0.347904 0.166880 0.032388 0.985445 
-0.252116 0.181186 -0.086465 -0.419834 -0.021084 -0.907356 
0.294579 0.255550 -0.398787 0.000000 1.000000 0.000000 
-0.460300 0.062485 0.063389 -1.000000 0.000000 0.000000 
-0.207000 0.185287 0.388418 -1.000000 0.000000 0.000000 
0.191652 0.127893 -0.293525 -0.001788 -0.984379 -0.176056 
0.432236 0.212392 -0.143102 0.068157 -0.982512 0.173275 
0.054570 -0.241545 0.025965 0.999368 -0.034315 0.009255 
0.223419 0.147478 -0.404310 0.000836 -0.984801 -0.173685 
0.196244 -0.057473 0.161587 0.828799 -0.553526 0.081861 
-0.067597 -0.237392 0.108213 0.000608 -0.984809 0.173641 
0.191924 0.139852 -0.095641 0.535271 -0.831790 0.147007 
-0.210208 -0.103638 0.284159 -0.989598 0.019451 0.142543 
0.460300 0.215069 0.072917 1.000000 0.000000 0.000000 
0.151633 0.023676 -0.040098 0.026427 -0.381192 -0.924118 
0.070425 -0.088537 0.315332 0.967966 -0.247324 0.043283 
-0.284064 0.002621 0.152918 -0.624389 0.079732 0.777033 
-0.419721 -0.233170 0.132087 -0.000998 -0.984791 0.173743 
-0.460300 -0.053669 0.106520 -1.000000 0.000000 0.000000 
0.205055 0.148085 -0.407843 -0.002895 -0.984546 -0.175100 
0.257094 0.255550 -0.136057 0.000000 1.000000 0.000000 
0.460300 0.213259 -0.143255 1.000000 0.000000 0.000000 
-0.039518 0.255550 0.340694 0.000000 1.000000 0.000000 
-0.069265 0.241511 0.462980 0.000001 0.004300 0.999991 
0.460300 0.110857 0.000623 1.000000 0.000000 0.000000 
-0.220996 -0.136338 0.251396 -0.911374 0.069635 0.405647 
0.010011 0.255550 0.247813 0.000000 1.000000 0.000000 
0.170204 -0.111848 0.144555 0.933558 -0.353385 0.059909 
-0.460300 0.255550 0.009134 0.000000 1.000000 0.000000 
0.446262 0.203208 -0.499408 -0.014508 -0.013444 -0.999804 
-0.204169 0.112324 0.433733 -0.981114 0.011752 0.193073 
-0.093352 0.255550 0.365104 0.000000 1.000000 0.000000 
-0.376572 0.012869 -0.035615 0.015940 -0.320040 -0.947270 
-0.293459 0.043831 -0.052327 -0.017298 -0.617990 -0.785996 
-0.117951 0.255550 0.027497 0.000000 1.000000 0.000000 
0.102711 -0.145685 0.045825 0.001405 -0.176177 -0.984358 
0.014502 0.255550 -0.208680 0.000000 1.000000 0.000000 
0.276868 0.255550 -0.068217 0.000000 1.000000 0.000000 
0.391052 0.134472 -0.003523 0.002602 -0.173544 -0.984823 
-0.179913 -0.228942 0.156108 0.000104 -0.984874 0.173272 
0.054987 -0.231101 0.019712 0.999368 -0.034315 0.009255 
0.286389 0.028413 0.117307 0.535038 -0.831425 0.149892 
-0.004011 -0.165016 -0.009323 0.003542 -0.142608 -0.989773 
0.401734 0.255550 -0.445517 0.000000 1.000000 0.000000 
0.083333 -0.136528 0.044208 -0.000085 -0.172094 -0.985081 
-0.076531 0.255550 -0.187946 0.000000 1.000000 0.000000 
0.155953 -0.157902 0.138477 0.967233 -0.251313 0.036082 
0.118951 0.020978 0.317224 0.853943 -0.513409 0.084807 
-0.250110 -0.235972 0.116193 0.000613 -0.984812 0.173624 
0.040840 0.085169 -0.098469 -0.011348 -0.876111 -0.481976 
-0.199127 -0.204794 -0.003315 0.001736 -0.154503 -0.987991 
-0.086889 -0.200371 -0.004017 0.000287 -0.151749 -0.988419 
0.380813 0.159133 -0.412377 0.178465 -0.968445 0.173965 
0.153204 -0.165401 0.168705 0.984238 -0.173454 0.034478 
-0.362384 0.255550 0.040636 0.000000 1.000000 0.000000 
-0.163803 -0.034447 -0.025210 -0.014086 -0.127331 -0.991760 
-0.334924 0.051848 -0.049331 -0.250547 -0.126130 -0.959853 
0.328605 0.255550 -0.005819 0.000000 1.000000 0.000000 
-0.390326 0.053405 -0.037768 -0.160039 -0.067143 -0.984824 
0.164897 0.112407 -0.140757 0.610169 -0.780936 0.133536 
0.345395 0.255550 -0.293508 0.000000 1.000000 0.000000 
0.223073 0.011690 0.018073 -0.000005 -0.173841 -0.984774 
0.448448 0.087949 0.152332 0.059171 -0.981866 0.180106 
-0.193041 0.162245 -0.120184 -0.552401 -0.019048 -0.833361 
0.187646 0.255550 0.132116 0.000000 1.000000 0.000000 
0.391500 0.075506 0.124462 0.226035 -0.960816 0.160436 
0.263864 0.149928 -0.418374 0.001980 -0.985357 -0.170492 
-0.361714 -0.101700 0.129887 -0.234684 0.125712 0.963909 
0.208132 0.123081 -0.265974 -0.001725 -0.984638 -0.174601 
0.337276 0.255550 0.135706 0.000000 1.000000 0.000000 
0.272043 0.255550 -0.337984 0.000000 1.000000 0.000000 
-0.130139 0.255550 0.100780 0.000000 1.000000 0.000000 
-0.183677 -0.104578 0.481849 -0.417375 0.153014 0.895759 
-0.460300 0.074278 0.038719 -1.000000 0.000000 0.000000 
-0.203493 -0.227029 0.000331 0.000026 -0.161690 -0.986842 
0.154061 -0.181872 0.052257 0.972734 -0.225635 0.053651 
-0.189351 0.255550 0.139346 0.000000 1.000000 0.000000 
0.002600 0.239339 0.348800 1.000000 0.000000 0.000000 
0.401037 0.255550 0.081538 0.000000 1.000000 0.000000 
0.278595 0.061521 0.009287 -0.000862 -0.174037 -0.984739 
-0.044482 -0.206713 -0.003002 -0.001614 -0.158994 -0.987278 
0.460300 0.241511 0.184165 1.000000 0.000000 0.000000 
0.266290 0.198828 -0.470704 -0.280112 -0.021148 -0.959734 
0.297507 0.154574 0.194329 0.413034 -0.895177 0.167515 
-0.176868 0.200046 -0.132398 -0.610356 -0.016313 -0.791959 
-0.073184 -0.191813 -0.005327 -0.002132 -0.156321 -0.987704 
0.279629 0.255550 -0.196861 0.000000 1.000000 0.000000 
0.258652 0.255550 -0.216820 0.000000 1.000000 0.000000 
0.196648 0.125227 -0.196078 0.526384 -0.836438 0.152611 
0.270936 0.255550 -0.208727 0.000000 1.000000 0.000000 
0.292098 0.152204 -0.066717 -0.003678 -0.171971 -0.985095 
0.164724 -0.126962 0.142492 0.951932 -0.303131 0.044016 
-0.304092 0.255550 0.044952 0.000000 1.000000 0.000000 
-0.207000 0.217690 0.308622 -1.000000 0.000000 0.000000 
0.150049 0.255550 0.152759 0.000000 1.000000 0.000000 
-0.159523 0.110257 0.467207 -0.001164 0.065629 0.997843 
0.313966 0.215196 -0.483491 -0.218249 -0.017412 -0.975738 
-0.018651 -0.241717 0.002800 0.000000 -0.170934 -0.985283 
0.433644 0.255550 -0.009455 0.000000 1.000000 0.000000 
0.133689 0.063582 -0.051112 -0.001438 -0.170332 -0.985386 
-0.275422 -0.076522 0.168036 -0.602840 0.104507 0.790988 
0.142352 0.255550 -0.230451 0.000000 1.000000 0.000000 
-0.207000 -0.067747 0.361889 -1.000000 0.000000 0.000000 
0.318098 0.114834 -0.000123 0.000102 -0.172874 -0.984944 
-0.207000 -0.085704 0.322937 -0.999642 0.001373 0.026712 
0.338270 0.255550 -0.474733 0.000000 1.000000 0.000000 
0.162889 0.255550 0.296975 0.000000 1.000000 0.000000 
0.365170 0.255550 -0.225668 0.000000 1.000000 0.000000 
-0.116173 -0.154464 0.497617 -0.000169 0.165241 0.986253 
0.429642 0.255550 0.308320 0.009141 0.003690 0.999951 
-0.328350 0.140157 0.119105 -0.338212 0.041149 0.940170 
-0.250110 -0.227519 0.164087 0.000778 -0.984763 0.173901 
-0.460300 0.140273 0.092265 -1.000000 0.000000 0.000000 
-0.213839 0.255550 0.043825 0.000000 1.000000 0.000000 
0.125585 -0.130727 0.043223 0.001820 -0.172712 -0.984971 
-0.155875 0.255550 0.252643 0.000000 1.000000 0.000000 
0.082049 0.083943 0.341576 0.140558 0.064712 0.987955 
0.179769 -0.094470 0.118912 0.883592 -0.461406 0.079813 
-0.446870 0.021767 -0.030459 -0.018341 -0.078780 -0.996723 
-0.066569 -0.006463 -0.029292 -0.000913 -0.283236 -0.959050 
0.386221 0.255550 -0.043015 0.000000 1.000000 0.000000 
-0.313770 0.255550 -0.048028 0.000000 1.000000 0.000000 
-0.432221 0.020449 0.113393 0.001644 0.085284 0.996355 
-0.427877 -0.255550 0.005200 0.000000 -0.169306 -0.985564 
0.255278 0.179932 -0.071600 0.434069 -0.887958 0.152034 
0.331837 0.138145 -0.064190 0.000251 -0.174777 -0.984608 
0.427912 0.227707 -0.499075 -0.031679 -0.007876 -0.999467 
0.460300 0.255550 0.039181 1.000000 0.000000 0.000000 
-0.011439 -0.226127 0.172073 -0.000459 -0.984832 0.173513 
-0.002400 0.255550 -0.163078 0.000000 1.000000 0.000000 
-0.221203 -0.004654 -0.029798 -0.000000 -0.290741 -0.956802 
0.418432 0.255550 0.167397 0.000000 1.000000 0.000000 
0.252269 0.255550 -0.405824 0.000000 1.000000 0.000000 
0.050756 -0.220794 0.202337 0.000126 -0.984713 0.174184 
0.085765 -0.174062 0.210584 0.000222 0.173717 0.984796 
-0.077287 -0.141561 0.495455 0.000490 0.165926 0.986138 
-0.003337 -0.158862 0.472235 0.799199 0.073823 0.596515 
-0.223421 0.015280 0.227904 -0.930850 0.036961 0.363528 
-0.212469 0.198666 -0.108525 -0.505079 -0.020754 -0.862823 
0.246976 -0.007437 0.093386 0.692504 -0.710959 0.122376 
0.061636 0.255550 0.068124 0.000000 1.000000 0.000000 
-0.214481 0.182654 -0.106962 -0.505079 -0.020754 -0.862823 
0.460300 0.230655 0.192271 1.000000 0.000000 0.000000 
-0.015252 0.083948 -0.096468 -0.013054 -0.889234 -0.457266 
-0.354404 -0.186839 -0.006071 0.000588 -0.152880 -0.988245 
0.446263 0.217218 -0.119261 0.018451 -0.985166 0.170607 
0.228408 0.194092 -0.457809 -0.331153 -0.008438 -0.943539 
0.460300 0.223003 0.114799 1.000000 0.000000 0.000000 
0.005818 -0.060002 -0.022539 -0.000603 -0.108308 -0.994117 
0.022154 0.202848 -0.335498 -0.661831 -0.014030 -0.749522 
-0.265914 -0.231231 0.143154 0.000680 -0.984832 0.173510 
-0.208837 0.205036 0.269593 -0.989422 0.003320 0.145026 
0.301123 0.020088 0.016664 0.532693 -0.831511 0.157567 
-0.091408 -0.088033 -0.019361 -0.001768 -0.120183 -0.992750 
-0.085701 -0.154464 0.497617 0.000181 0.164923 0.986306 
-0.105114 -0.096628 -0.018316 0.000178 -0.120456 -0.992719 
-0.059919 0.159326 -0.249627 -0.761415 -0.021103 -0.647922 
0.237411 0.136850 -0.265440 0.445297 -0.882761 0.149811 
-0.207000 0.148708 0.410951 -1.000000 0.000000 0.000000 
-0.244793 -0.091251 0.202777 -0.815264 0.069589 0.574892 
0.037753 0.047052 0.351236 0.165792 0.079145 0.982980 
0.046347 -0.237963 0.104926 -0.000186 -0.984726 0.174112 
0.066923 -0.156870 -0.010493 -0.000051 -0.141991 -0.989868 
0.107839 -0.231457 0.060945 -0.001306 -0.173186 -0.984888 
0.302287 0.150082 -0.349637 0.326183 -0.931352 0.161825 
0.301908 0.149228 0.153601 0.410088 -0.896089 0.169859 
-0.109715 -0.179683 0.435497 -0.000415 -0.984808 0.173646 
0.284231 0.255550 -0.411267 0.000000 1.000000 0.000000 
0.364933 0.156027 -0.413372 0.178465 -0.968445 0.173965 
0.129132 0.255550 -0.356373 0.000000 1.000000 0.000000 
0.078650 0.255550 0.264608 0.000000 1.000000 0.000000 
0.347026 0.211244 -0.077113 -0.002241 -0.171300 -0.985216 
0.139384 0.255550 -0.042730 0.000000 1.000000 0.000000 
0.090726 0.255550 -0.050762 0.000000 1.000000 0.000000 
-0.164751 -0.154660 0.496542 -0.067400 0.207615 0.975886 
-0.187338 0.213429 -0.125155 -0.587950 -0.007100 -0.808866 
-0.227513 0.176836 -0.099273 -0.502449 -0.016939 -0.864441 
0.366293 0.255550 0.268158 0.000000 1.000000 0.000000 
-0.015395 -0.200902 0.315131 -0.000133 -0.984784 0.173780 
-0.034251 0.255550 0.084452 0.000000 1.000000 0.000000 
0.246747 0.255550 0.316863 0.000000 1.000000 0.000000 
0.294114 0.167181 -0.236230 0.325867 -0.930069 0.169655 
-0.124028 0.021719 -0.039440 0.029851 -0.472291 -0.880937 
-0.108962 -0.000399 -0.031084 -0.030510 -0.215499 -0.976027 
-0.305773 0.161281 0.128841 -0.509820 0.024930 0.859920 
-0.324585 -0.253116 0.019027 0.000000 -0.984857 0.173370 
-0.050990 -0.140637 0.495302 0.134465 0.210614 0.968277 
-0.221150 0.073683 0.228302 -0.911131 0.042724 0.409896 
-0.013092 0.255550 -0.262338 0.000000 1.000000 0.000000 
0.317062 0.198541 -0.102609 0.315222 -0.936087 0.156129 
-0.181852 -0.202763 0.304547 -0.000204 -0.984813 0.173620 
0.077789 0.114559 -0.217587 0.002578 -0.984737 -0.174033 
0.232717 0.144240 -0.209971 0.450671 -0.878820 0.156750 
-0.150867 0.134820 0.465929 -0.097702 0.027518 0.994835 
0.342425 0.097496 0.162685 -0.001049 0.174948 0.984577 
0.298372 0.255550 -0.328226 0.000000 1.000000 0.000000 
0.316381 0.043770 0.012435 0.000871 -0.174041 -0.984738 
-0.134853 0.255550 0.073100 0.000000 1.000000 0.000000 
0.056151 -0.170468 0.326133 0.995593 -0.092034 0.017991 
0.280078 0.149899 -0.418051 -0.002092 -0.984934 -0.172920 
-0.025479 -0.233167 0.132160 0.000355 -0.984797 0.173711 
-0.342677 0.145561 0.113780 -0.251157 0.053993 0.966439 
0.418182 0.255550 -0.394626 0.000000 1.000000 0.000000 
0.125368 -0.204516 0.215989 0.000000 0.169308 0.985563 
0.130062 0.015542 0.191424 0.805222 -0.585529 0.093666 
0.263291 0.148962 0.260043 0.493600 -0.854019 0.164348 
0.154264 0.017379 0.017053 0.769619 -0.629661 0.105896 
-0.460300 0.143229 -0.009294 -1.000000 0.000000 0.000000 
-0.150561 0.137353 -0.151655 -0.662641 -0.031720 -0.748265 
0.027021 -0.212340 0.250230 -0.000200 -0.984717 0.174164 
0.446264 0.202012 0.268640 0.022377 -0.984677 0.172944 
0.202281 0.147227 -0.092113 0.529807 -0.836249 0.141392 
0.207929 0.058872 0.169498 -0.001339 0.172491 0.985010 
-0.417079 0.014679 0.113876 0.001706 0.083835 0.996478 
0.382477 0.124898 0.157875 -0.001420 0.173592 0.984817 
-0.007114 0.255550 -0.190758 0.000000 1.000000 0.000000 
-0.075121 -0.143724 -0.012323 0.000593 -0.137150 -0.990550 
0.002600 -0.007306 0.362335 1.000000 0.000000 0.000000 
-0.009267 0.201608 -0.306342 -0.708654 -0.008883 -0.705501 
0.221874 0.132844 0.321991 0.604678 -0.786578 0.125136 
-0.244013 0.177498 0.182788 -0.782954 0.023407 0.621639 
0.460300 0.099285 0.136903 1.000000 0.000000 0.000000 
-0.026893 0.046172 -0.053917 0.016228 -0.587402 -0.809133 
-0.038516 0.255550 0.387593 0.000000 1.000000 0.000000 
-0.203643 0.172454 -0.113389 -0.524302 -0.024323 -0.851185 
0.195009 0.255550 -0.210934 0.000000 1.000000 0.000000 
0.282407 0.155553 0.240562 0.457340 -0.876668 0.149307 
-0.171069 -0.203691 -0.003490 0.001427 -0.153836 -0.988095 
-0.022872 0.255550 0.296137 0.000000 1.000000 0.000000 
0.411786 0.206373 0.309043 0.020594 0.013606 0.999695 
0.019438 0.255550 0.303174 0.000000 1.000000 0.000000 
-0.385037 -0.123787 -0.014967 0.002007 -0.129053 -0.991636 
0.110826 -0.050993 -0.023488 0.862939 -0.498374 0.083423 
0.051178 0.255550 -0.186442 0.000000 1.000000 0.000000 
-0.123755 -0.206427 0.283829 -0.000443 -0.984853 0.173390 
0.173239 -0.109153 0.116771 0.926714 -0.369504 0.068315 
0.283509 0.112076 -0.013841 0.416852 -0.895858 0.153859 
0.054405 0.255550 -0.116542 0.000000 1.000000 0.000000 
-0.108067 -0.168300 0.500000 0.000000 0.169721 0.985492 
0.081574 0.061859 -0.067691 0.000723 -0.747131 -0.664676 
-0.214645 0.037167 0.249996 -0.946644 0.024498 0.321350 
0.216152 0.083661 0.165175 0.001504 0.173622 0.984811 
0.148504 -0.203590 0.138348 0.997944 -0.063199 0.010639 
0.078084 -0.242907 0.076925 -0.000149 -0.984945 0.172867 
-0.125127 0.180850 -0.176453 -0.697091 -0.013983 -0.716846 
0.460300 0.065749 0.024968 0.021251 -0.984739 0.172734 
-0.277736 0.045020 0.154053 -0.664471 0.058199 0.745045 
-0.005332 0.227699 0.440238 0.753249 -0.058070 0.655167 
-0.446899 -0.215590 -0.001559 0.001842 -0.162977 -0.986628 
0.386896 0.255550 -0.001504 0.000000 1.000000 0.000000 
0.017486 0.255550 0.146850 0.000000 1.000000 0.000000 
0.092034 0.118546 -0.240159 -0.002399 -0.984480 -0.175479 
0.177149 0.151549 0.325748 0.109065 0.038518 0.993288 
-0.203000 -0.250678 0.032853 0.000001 -0.984831 0.173516 
0.219091 -0.027960 0.025086 -0.000140 -0.173706 -0.984798 
0.330463 0.157217 -0.459601 -0.000172 -0.984753 -0.173959 
-0.166804 0.189819 -0.139943 -0.610356 -0.016313 -0.791959 
-0.124505 0.255550 0.085579 0.000000 1.000000 0.000000 
0.031281 0.004992 -0.032708 0.044565 -0.228046 -0.972630 
0.460300 0.255550 0.131662 0.000000 1.000000 0.000000 
0.387621 0.211857 -0.119964 0.168355 -0.970639 0.171805 
0.078507 -0.053483 -0.023220 -0.000476 -0.107324 -0.994224 
0.175346 0.255550 -0.036688 0.000000 1.000000 0.000000 
-0.181876 0.255550 0.038382 0.000000 1.000000 0.000000 
-0.082084 0.255550 0.334703 0.000000 1.000000 0.000000 
-0.019426 0.109599 -0.189547 0.000698 -0.984687 -0.174333 
-0.215679 0.255550 0.129587 0.000000 1.000000 0.000000 
0.119441 0.105899 -0.168669 -0.000143 -0.984723 -0.174126 
0.304006 0.255550 -0.343427 0.000000 1.000000 0.000000 
0.026466 0.088764 -0.105085 0.025181 -0.893633 -0.448092 
-0.165873 -0.190943 0.371636 -0.000082 -0.984788 0.173761 
-0.431160 0.191688 0.104210 0.003077 0.023238 0.999725 
0.460300 0.203037 -0.454759 1.000000 0.000000 0.000000 
0.026901 0.034301 -0.046054 -0.005544 -0.474993 -0.879972 
0.115103 0.255550 -0.197328 0.000000 1.000000 0.000000 
-0.193726 0.011536 -0.034777 -0.002003 -0.294049 -0.955788 
0.212731 -0.039519 0.128155 0.807010 -0.583080 0.093553 
-0.056676 0.255550 0.387342 0.000000 1.000000 0.000000 
0.460300 0.209906 -0.324143 1.000000 0.000000 0.000000 
0.007112 -0.092193 -0.018909 0.000648 -0.115742 -0.993279 
-0.345205 -0.065835 -0.021921 0.000095 -0.111546 -0.993759 
0.171576 -0.105693 0.159489 0.933558 -0.353385 0.059909 
0.192405 0.132137 -0.140712 0.541215 -0.829053 0.140563 
-0.250110 -0.238787 0.100228 0.000247 -0.984742 0.174019 
-0.235481 0.172323 0.195565 -0.861023 0.013775 0.508379 
0.344698 0.255550 0.233546 0.000000 1.000000 0.000000 
0.254260 0.255550 0.166033 0.000000 1.000000 0.000000 
0.305149 0.255550 0.097866 0.000000 1.000000 0.000000 
0.316932 0.155218 0.152510 0.001122 0.177292 0.984158 
-0.081637 -0.207836 0.275847 -0.000286 -0.984753 0.173958 
-0.171840 0.171536 0.461849 -0.439785 -0.020744 0.897864 
0.113373 0.255550 0.130522 0.000000 1.000000 0.000000 
0.018406 0.255550 0.103968 0.000000 1.000000 0.000000 
0.418068 0.178756 -0.328211 0.070472 -0.981817 0.176265 
0.460300 0.203406 -0.485568 1.000000 0.000000 0.000000 
-0.217632 0.255550 -0.026737 0.000000 1.000000 0.000000 
0.280669 0.051024 0.170873 0.001003 0.175329 0.984509 
0.106304 -0.052139 0.015110 0.873841 -0.477735 0.090399 
-0.388978 -0.001822 0.115776 -0.065772 0.087210 0.994016 
0.321158 0.255550 0.181599 0.000000 1.000000 0.000000 
0.114294 0.255550 0.087640 0.000000 1.000000 0.000000 
-0.336487 -0.201254 0.151440 -0.278677 0.137195 0.950535 
0.460300 0.242916 -0.327729 1.000000 0.000000 0.000000 
-0.129218 -0.095390 0.488276 -0.000074 0.140754 0.990045 
0.405722 0.255550 -0.037045 0.000000 1.000000 0.000000 
0.460300 0.255550 -0.370309 1.000000 0.000000 0.000000 
0.085204 0.255550 0.206526 0.000000 1.000000 0.000000 
0.433613 0.255550 0.145457 0.000000 1.000000 0.000000 
0.111713 -0.154992 0.047503 0.001405 -0.176177 -0.984358 
-0.301150 0.129471 0.132856 -0.520846 0.034818 0.852940 
0.294690 0.255550 -0.156701 0.000000 1.000000 0.000000 
-0.137794 -0.238795 0.100230 0.000128 -0.984778 0.173819 
0.037886 0.065958 -0.072415 0.020160 -0.767142 -0.641160 
-0.026777 0.255550 -0.016511 0.000000 1.000000 0.000000 
-0.292228 -0.237397 0.108214 0.000478 -0.984904 0.173103 
-0.231358 0.125993 0.204322 -0.895980 0.008154 0.444019 
0.338298 0.203690 -0.488319 -0.172193 -0.015067 -0.984948 
0.460300 0.242105 -0.278071 1.000000 0.000000 0.000000 
-0.151834 -0.245839 0.060318 0.000122 -0.984721 0.174137 
-0.265917 0.203808 0.157019 -0.670421 0.014760 0.741834 
0.027791 0.135857 -0.338665 0.001217 -0.985294 -0.170863 
0.344137 0.255550 -0.250347 0.000000 1.000000 0.000000 
0.002600 -0.013872 0.377157 1.000000 0.000000 0.000000 
-0.072538 -0.207812 -0.002796 -0.002185 -0.161208 -0.986918 
-0.460300 0.114996 -0.003216 -1.000000 0.000000 0.000000 
0.268005 0.161454 0.316963 0.491457 -0.859282 0.141789 
-0.124398 -0.127087 0.493104 -0.000001 0.154833 0.987941 
-0.178785 0.184041 -0.130676 -0.604219 -0.017553 -0.796625 
0.395720 0.199307 0.281785 0.139516 -0.972571 0.186122 
0.046873 -0.050305 -0.023576 0.000554 -0.101519 -0.994833 
-0.207000 -0.105951 0.342393 -1.000000 0.000000 0.000000 
0.155683 0.255550 0.137559 0.000000 1.000000 0.000000 
0.326510 0.226881 0.311674 0.058755 0.014736 0.998164 
0.460300 0.255550 -0.337887 0.000000 1.000000 0.000000 
0.403690 0.218782 -0.092669 0.115695 -0.977430 0.176765 
-0.238447 -0.064687 0.208283 -0.804889 0.075511 0.588601 
-0.081741 -0.127890 0.493230 0.000001 0.154830 0.987941 
0.231935 0.135492 0.295652 0.581911 -0.801203 0.139474 
0.002600 0.199136 0.363427 1.000000 0.000000 0.000000 
-0.009745 -0.213100 0.245953 -0.000251 -0.984911 0.173060 
0.460300 0.204777 0.201439 1.000000 0.000000 0.000000 
0.198078 0.138315 -0.126839 0.528604 -0.837397 0.139085 
-0.156701 -0.168300 0.500000 -0.067400 0.207615 0.975886 
0.176871 0.126368 -0.112844 0.567720 -0.810492 0.144215 
0.030266 0.206825 0.344460 0.163877 0.014905 0.986368 
-0.000559 0.255550 -0.248840 0.000000 1.000000 0.000000 
-0.245697 0.193390 0.180068 -0.782954 0.023407 0.621639 
-0.095676 -0.231755 0.140142 -0.000228 -0.984941 0.172890 
-0.407370 -0.188033 0.138859 -0.000278 0.161032 0.986949 
0.367172 0.255550 -0.462627 0.000000 1.000000 0.000000 
-0.379271 0.114270 0.107937 -0.060895 0.066361 0.995936 
0.333734 0.176018 -0.486960 -0.176524 -0.027329 -0.983917 
-0.229938 0.020129 0.213875 -0.861764 0.052827 0.504552 
0.003345 0.255550 0.063808 0.000000 1.000000 0.000000 
0.302638 0.255550 -0.131702 0.000000 1.000000 0.000000 
0.160174 0.255550 -0.318935 0.000000 1.000000 0.000000 
0.056207 -0.178118 0.278109 0.998493 -0.053914 0.010274 
0.116534 -0.006835 0.181106 0.839094 -0.535741 0.094359 
0.430640 0.255550 -0.043847 0.000000 1.000000 0.000000 
0.346615 0.156578 -0.386627 0.243289 -0.955406 0.167360 
-0.180425 0.059308 0.465279 -0.257209 0.131263 0.957399 
0.011852 0.255550 0.162051 0.000000 1.000000 0.000000 
0.358652 0.181558 -0.261001 0.220322 -0.960894 0.167753 
-0.303442 -0.056118 -0.022963 0.000904 -0.106718 -0.994289 
-0.460300 0.184992 0.003321 -1.000000 0.000000 0.000000 
-0.060656 -0.077426 0.485722 -0.002272 0.134709 0.990883 
-0.388712 0.255550 0.030878 0.000000 1.000000 0.000000 
0.028732 -0.253237 0.018315 0.000182 -0.984813 0.173618 
-0.106683 0.255550 -0.002905 0.000000 1.000000 0.000000 
0.460300 0.199993 -0.371826 1.000000 0.000000 0.000000 
-0.207000 -0.045282 0.385267 -1.000000 0.000000 0.000000 
-0.268946 -0.215536 -0.001542 -0.001245 -0.162099 -0.986774 
-0.054026 0.255550 0.016612 0.000000 1.000000 0.000000 
0.195309 0.086228 0.178935 0.639494 -0.754558 0.147279 
0.002600 -0.119828 0.404871 1.000000 0.000000 0.000000 
-0.282301 0.255550 -0.059076 0.000000 1.000000 0.000000 
0.403833 0.194559 -0.230311 0.098964 -0.979758 0.174012 
0.460300 0.176205 -0.041665 1.000000 0.000000 0.000000 
-0.432234 0.044927 -0.032837 -0.040659 -0.069940 -0.996722 
0.054342 -0.240413 0.091040 -0.000188 -0.984782 0.173794 
0.259319 0.242783 -0.468990 -0.290746 -0.003761 -0.956793 
0.389466 0.134776 0.156144 -0.001420 0.173592 0.984817 
-0.173615 0.255550 0.234848 0.000000 1.000000 0.000000 
0.106531 0.111926 -0.202816 -0.001737 -0.984871 -0.173278 
-0.204739 0.128016 0.429982 -0.919844 -0.014836 0.392003 
-0.193225 0.223916 0.448919 -0.560926 0.018016 0.827670 
0.289080 0.255550 0.057332 0.000000 1.000000 0.000000 
0.125450 0.255550 -0.184848 0.000000 1.000000 0.000000 
0.460300 0.181050 0.148000 1.000000 0.000000 0.000000 
-0.042878 -0.009393 0.476926 0.048970 0.088766 0.994848 
0.012109 0.091801 -0.111949 0.025181 -0.893633 -0.448092 
0.290807 0.118016 -0.000640 -0.001663 -0.172451 -0.985017 
0.213565 0.150419 -0.421035 0.000836 -0.984801 -0.173685 
0.049932 0.158351 0.342634 0.154618 0.041750 0.987092 
0.107628 0.255550 -0.096364 0.000000 1.000000 0.000000 
-0.083439 0.214844 0.463268 0.000000 0.018915 0.999821 
-0.432221 -0.032980 -0.025335 -0.007438 -0.118465 -0.992930 
-0.460300 0.145261 0.060639 -1.000000 0.000000 0.000000 
0.327821 0.222510 -0.486505 -0.198645 -0.003359 -0.980066 
-0.169750 -0.109808 0.488291 -0.154699 0.132262 0.979068 
0.207198 0.255550 -0.284217 0.000000 1.000000 0.000000 
0.026490 -0.250729 0.032529 -0.000203 -0.984885 0.173211 
-0.050939 -0.046116 -0.023999 0.000433 -0.106009 -0.994365 
-0.395455 0.255550 0.103606 -0.006550 0.000824 0.999978 
0.432221 0.255550 -0.370309 0.000000 1.000000 0.000000 
-0.207000 0.104655 0.363362 -1.000000 0.000000 0.000000 
-0.446261 -0.019911 0.117073 -0.002435 0.099292 0.995055 
0.460300 0.194180 -0.468337 1.000000 0.000000 0.000000 
0.014609 0.255550 0.275513 0.000000 1.000000 0.000000 
-0.222625 0.099825 -0.099044 -0.514139 -0.036400 -0.856934 
0.182932 0.255550 0.104435 0.000000 1.000000 0.000000 
0.069569 0.255550 -0.344091 0.000000 1.000000 0.000000 
-0.446261 -0.190751 0.139293 0.000404 0.162109 0.986773 
-0.329567 -0.105504 -0.017286 -0.000507 -0.119973 -0.992777 
0.062063 -0.172479 0.022332 0.978740 -0.201172 0.039970 
0.368970 0.164257 -0.371473 0.191908 -0.968224 0.160355 
0.322613 0.206427 -0.485268 -0.193291 -0.014215 -0.981038 
0.070625 -0.095300 0.272980 0.963904 -0.260024 0.057235 
-0.017851 -0.205779 0.287430 -0.000239 -0.984736 0.174053 
-0.400388 -0.131107 0.130329 -0.034091 0.129964 0.990933 
-0.290344 0.255550 -0.027736 0.000000 1.000000 0.000000 
0.115818 -0.033963 0.026156 -0.001134 -0.171608 -0.985165 
-0.427877 -0.230720 0.146000 0.000000 -0.984843 0.173450 
-0.207000 -0.027325 0.424218 -0.995178 -0.001599 0.098069 
-0.000228 0.070480 -0.076937 0.010608 -0.804731 -0.593545 
-0.211563 0.048200 0.261321 -0.985481 0.010166 0.169484 
-0.111032 0.150703 0.465190 0.001826 0.046843 0.998901 
0.159722 0.113307 -0.210370 0.002540 -0.984686 -0.174316 
-0.351185 0.140016 -0.049924 -0.246244 -0.034414 -0.968597 
0.170744 0.255550 0.177718 0.000000 1.000000 0.000000 
0.186351 0.037998 0.173198 -0.003236 0.171051 0.985257 
-0.236070 -0.228935 0.156106 -0.000709 -0.984819 0.173586 
-0.199771 -0.188790 -0.005819 -0.000513 -0.150983 -0.988536 
-0.419592 0.213323 -0.040996 -0.075949 -0.022885 -0.996849 
-0.111626 0.255550 -0.151724 0.000000 1.000000 0.000000 
-0.460300 0.067029 0.081758 -1.000000 0.000000 0.000000 
-0.207000 0.155156 0.338706 -1.000000 0.000000 0.000000 
0.195232 0.255550 0.273239 0.000000 1.000000 0.000000 
-0.095676 -0.189528 0.379618 0.000120 -0.984818 0.173592 
0.339125 0.206925 -0.090594 0.234151 -0.957314 0.169481 
0.420153 0.255550 -0.176492 0.000000 1.000000 0.000000 
-0.460300 -0.173022 0.020172 -1.000000 0.000000 0.000000 
